ply
format ascii 1.0
comment Generated by PyMesh
element vertex 874
property double x
property double y
property double z
property float nx
property float ny
property float nz
element face 0
property list uchar int vertex_indices
end_header
5.57398 5.2495 -8.15336 3 0.0805836 0.40534 0.910607
5.19731 5.26497 -8.11903 3 0.0990034 0.368434 0.924367
4.82986 5.27936 -8.06998 3 0.0367949 0.319923 0.946729
4.40786 5.29908 -8.0855 3 -0.0494087 0.269434 0.96175
3.96078 5.32112 -8.12774 3 -0.113871 0.276588 0.954218
3.47284 5.34701 -8.21525 3 -0.205583 0.269341 0.940846
2.87639 5.38339 -8.42852 3 -0.324537 0.253616 0.911238
2.27433 5.42 -8.64112 3 -0.306524 0.248201 0.918934
1.64836 5.45861 -8.87473 3 -0.391939 0.179273 0.902355
0.745738 5.52384 -9.42643 3 -0.606065 -0.0857718 0.790778
-4.42361 6.00245 -14.9493 3 -0.0274163 0.190324 0.981338
-4.91397 6.02487 -14.9561 3 0.0131626 0.214299 0.976679
-5.39108 6.04581 -14.9433 3 0.0467618 0.253957 0.966084
-5.85707 6.06551 -14.9136 3 0.0657025 0.274122 0.959448
-6.32967 6.08567 -14.8876 3 0.117104 0.298791 0.947106
-6.77897 6.10344 -14.8315 3 0.153789 0.322955 0.933836
-7.22329 6.12058 -14.7663 3 0.189589 0.356131 0.915001
-7.6412 6.13509 -14.6688 3 0.193657 0.374913 0.906608
-8.07505 6.15097 -14.5858 3 0.182421 0.399746 0.89829
-8.51001 6.16682 -14.5011 3 0.181779 0.431559 0.88358
-8.94213 6.18227 -14.4102 3 0.171835 0.491033 0.854025
-9.3876 6.19882 -14.3305 3 0.181364 0.558084 0.809722
-9.81884 6.21392 -14.2327 3 0.217729 0.612065 0.760244
-10.2218 6.2263 -14.1024 3 0.255499 0.644911 0.720285
-10.618 6.23796 -13.9627 3 0.250364 0.686442 0.682726
-11.0108 6.24922 -13.8174 3 0.231168 0.715019 0.659779
-11.4137 6.26129 -13.6802 3 0.203937 0.726535 0.656168
-11.8631 6.27746 -13.5879 3 0.165226 0.742464 0.64919
-12.3072 6.29302 -13.4874 3 0.143432 0.741961 0.65492
-12.7863 6.31158 -13.4189 3 0.10001 0.736535 0.668965
-13.3002 6.33309 -13.3814 3 0.0666553 0.732002 0.678034
-13.8347 6.35625 -13.3602 3 0.0745779 0.70282 0.707447
-14.3591 6.37833 -13.3249 3 0.0644682 0.707735 0.70353
-14.8885 6.40068 -13.2905 3 0.0622374 0.710465 0.700974
-15.4365 6.42447 -13.2697 3 0.0510982 0.717945 0.694222
-16.0052 6.44988 -13.2644 3 0.060279 0.72323 0.687972
-16.5661 6.47441 -13.2472 3 0.0788999 0.72527 0.683928
-17.1009 6.49648 -13.2011 3 0.0990832 0.749831 0.654168
-17.6203 6.51706 -13.137 3 0.119382 0.751732 0.648573
-18.1324 6.53684 -13.0624 3 0.13167 0.758959 0.637686
-18.6463 6.55662 -12.986 3 0.14682 0.768153 0.623206
-19.1303 6.57369 -12.8791 3 0.181635 0.773339 0.607417
-19.5978 6.58924 -12.7544 3 0.222811 0.7757 0.590461
-20.0178 6.60064 -12.5848 3 0.260909 0.776529 0.573524
-20.4177 6.61026 -12.3955 3 0.291024 0.776771 0.558509
-20.7963 6.61803 -12.186 3 0.310766 0.778683 0.545049
-21.1889 6.62689 -11.9872 3 0.325549 0.781945 0.531582
-21.5545 6.63345 -11.7636 3 0.346613 0.785296 0.513001
-21.8985 6.63816 -11.5206 3 0.370311 0.786697 0.493941
-22.2311 6.64189 -11.2671 3 0.387374 0.786531 0.480948
-22.5523 6.64466 -11.0035 3 0.407523 0.786247 0.464478
-22.8597 6.64627 -10.7278 3 0.438863 0.780242 0.445669
-23.1514 6.64659 -10.439 3 0.453406 0.78085 0.429763
-23.4349 6.64624 -10.1434 3 0.466069 0.775381 0.426103
-23.7037 6.6447 -9.836 3 0.500409 0.762953 0.40926
-25.7484 6.64711 -7.81563 3 0.159122 0.808348 0.566793
-21.3631 6.27897 -3.98269 3 0.220377 0.81903 0.52974
-21.5926 6.27572 -3.67661 3 0.213454 0.804626 0.554089
-21.973 6.28429 -3.48352 3 0.197952 0.818582 0.539202
-22.5109 6.30507 -3.40532 3 0.0009711 0.744423 0.667707
21.9343 4.80152 -21.6386 3 -0.0223531 -0.001153 0.999749
21.6221 4.8147 -21.6391 3 -0.0102706 -0.009236 0.999905
21.3045 4.82844 -21.6477 3 -0.0047881 -0.0415571 0.999125
20.9891 4.8417 -21.6469 3 -0.0393562 -0.0663009 0.997023
20.6581 4.85691 -21.6771 3 -0.0790278 -0.0827699 0.99343
20.326 4.87206 -21.7049 3 -0.0181023 -0.0703024 0.997362
20.0085 4.88506 -21.6955 3 0.0402888 -0.049672 0.997953
19.6914 4.89782 -21.681 3 0.0439167 -0.0179252 0.998874
19.3733 4.91056 -21.6648 3 0.0180557 0.0089484 0.999797
19.0411 4.92498 -21.675 3 -0.0358604 0.0211732 0.999132
18.6974 4.94073 -21.7054 3 -0.038281 0.0193522 0.99908
18.3668 4.95458 -21.7032 3 -0.0313008 0.0146292 0.999403
18.0254 4.96964 -21.7193 3 -0.0173094 0.0060812 0.999832
17.6898 4.98376 -21.7189 3 -0.0377056 -0.0017971 0.999287
17.3373 4.99987 -21.749 3 -0.0416316 -0.0019641 0.999131
16.9921 5.01485 -21.7592 3 0.0015923 0.0053192 0.999985
16.6551 5.02861 -21.7486 3 0.0154298 0.0129202 0.999798
16.3131 5.04283 -21.7439 3 0.0016689 0.0162986 0.999866
15.9608 5.05815 -21.7553 3 -0.0109417 0.0160283 0.999812
15.6135 5.07268 -21.7525 3 -0.0040136 0.0206608 0.999779
15.2627 5.08746 -21.7523 3 -0.02606 0.024728 0.999355
14.8937 5.10428 -21.7829 3 -0.0707184 0.0384904 0.996753
14.5198 5.1215 -21.818 3 -0.0419326 0.0485602 0.99794
14.1672 5.13595 -21.8079 3 -0.0530031 0.0504814 0.997318
13.7833 5.15397 -21.8523 3 0.0513893 0.0371063 0.997989
13.4305 5.16807 -21.8338 3 0.131465 0.0885992 0.987354
13.1355 5.17515 -21.705 3 0.191013 0.112823 0.975082
13.0213 5.13325 -20.5804 3 0.896202 0.402388 0.186831
12.9277 5.11691 -20.0922 3 0.876747 0.411845 0.24839
12.7971 5.10505 -19.6741 3 0.847552 0.422707 0.320895
12.6482 5.09545 -19.2918 3 0.802462 0.420214 0.423646
12.4622 5.09019 -18.9766 3 0.777957 0.423594 0.464058
12.2762 5.085 -18.6629 3 0.743393 0.444014 0.500219
12.0676 5.08243 -18.3894 3 0.72316 0.449624 0.524288
11.8663 5.07906 -18.1041 3 0.711675 0.451296 0.538378
11.6587 5.07644 -17.8303 3 0.697779 0.459663 0.549376
11.451 5.07386 -17.5574 3 0.681398 0.466652 0.563855
11.2275 5.07307 -17.3114 3 0.668569 0.470894 0.575565
11.0078 5.07185 -17.0593 3 0.662471 0.47117 0.58235
11.1866 4.81177 -10.9799 3 0.774375 0.577178 0.259248
11.0934 4.79878 -10.5728 3 0.781241 0.541739 0.310133
10.9535 4.79078 -10.2382 3 0.683236 0.616837 0.390771
10.7773 4.78659 -9.95857 3 0.617737 0.631294 0.468902
10.5877 4.78382 -9.69953 3 0.555151 0.64647 0.523339
10.3562 4.78535 -9.50152 3 0.505706 0.65922 0.556498
10.1211 4.78724 -9.30837 3 0.462055 0.656886 0.595824
9.86841 4.79088 -9.13962 3 0.379362 0.683592 0.623528
9.60234 4.79583 -8.98881 3 0.335361 0.693755 0.637367
9.30872 4.80349 -8.87525 3 0.281797 0.710316 0.645013
8.9959 4.81298 -8.7864 3 0.228044 0.745101 0.626755
8.69033 4.82167 -8.68538 3 0.2143 0.775486 0.593883
8.39654 4.82911 -8.56635 3 0.246209 0.786472 0.56643
8.08989 4.83773 -8.46291 3 0.239361 0.781364 0.576347
7.78962 4.84566 -8.34896 3 0.230182 0.760486 0.607188
7.46371 4.856 -8.26715 3 0.229242 0.726819 0.647443
7.13104 4.86689 -8.19185 3 0.201138 0.688446 0.69684
6.78759 4.87872 -8.12811 3 0.169279 0.646128 0.74422
6.4456 4.8903 -8.0598 3 0.152202 0.58529 0.796411
6.07795 4.90421 -8.02175 3 0.0835622 0.560201 0.824131
5.69714 4.91925 -7.99729 3 0.0569219 0.49402 0.867586
5.30465 4.93525 -7.98417 3 0.0293976 0.461112 0.886855
4.90479 4.95179 -7.97671 3 -0.0582896 0.350064 0.93491
4.46976 4.97147 -8.00913 3 -0.0979608 0.210278 0.972721
4.02007 4.99234 -8.05522 3 -0.107843 0.169693 0.979579
3.54316 5.01555 -8.12988 3 -0.203961 0.13483 0.96965
2.95914 5.04843 -8.32884 3 -0.342674 0.119029 0.931883
2.34662 5.08364 -8.55479 3 -0.341818 0.0529322 0.938274
1.68869 5.12268 -8.82707 3 -0.456288 0.0392571 0.888966
0.58191 5.20226 -9.61964 3 -0.49269 0.109711 0.863261
-4.34071 5.62714 -14.8527 3 -0.0049357 0.297353 0.954755
-4.82825 5.64787 -14.857 3 0.0394895 0.324365 0.945107
-5.28592 5.66573 -14.8227 3 0.0563138 0.34775 0.935894
-5.75887 5.68481 -14.8019 3 0.0667881 0.360557 0.930343
-6.23047 5.70359 -14.7757 3 0.133173 0.392017 0.910268
-6.66654 5.71907 -14.7057 3 0.178074 0.415025 0.892213
-7.09039 5.73332 -14.6188 3 0.198215 0.430385 0.880613
-7.50864 5.74697 -14.5228 3 0.217026 0.452423 0.864993
-7.93523 5.76122 -14.4332 3 0.199971 0.475297 0.856799
-8.34636 5.77401 -14.3238 3 0.210589 0.491424 0.845077
-8.77596 5.78829 -14.2316 3 0.23604 0.52687 0.816513
-9.17146 5.7995 -14.1002 3 0.256987 0.555742 0.790638
-9.56268 5.81025 -13.962 3 0.279867 0.610494 0.740926
-9.94225 5.81991 -13.8093 3 0.291803 0.644526 0.706709
-10.3052 5.82806 -13.6374 3 0.291222 0.667002 0.685782
-10.6817 5.83731 -13.478 3 0.272349 0.669431 0.69115
-11.0793 5.84826 -13.3381 3 0.243075 0.670824 0.70065
-11.5076 5.86171 -13.2273 3 0.217965 0.679987 0.700078
-11.9428 5.87563 -13.1208 3 0.170319 0.684648 0.708695
-12.418 5.89277 -13.0514 3 0.099789 0.66979 0.735815
-12.9306 5.9129 -13.0157 3 0.0702827 0.656151 0.75135
-13.4513 5.93353 -12.9839 3 0.0617484 0.618288 0.783522
-13.991 5.95555 -12.9665 3 0.0771232 0.604452 0.7929
-14.5112 5.9758 -12.9262 3 0.0897462 0.588107 0.803788
-15.0373 5.99637 -12.8875 3 0.0881041 0.590988 0.801855
-15.5831 6.01838 -12.8636 3 0.0821544 0.599754 0.795956
-16.1302 6.04033 -12.8367 3 0.0889278 0.614908 0.783569
-16.6826 6.06253 -12.8105 3 0.117767 0.64577 0.754395
-17.2051 6.08213 -12.7523 3 0.151693 0.662071 0.733928
-17.6923 6.09876 -12.6581 3 0.150535 0.6971 0.700993
-18.1828 6.11551 -12.5637 3 0.163601 0.711878 0.682982
-18.6859 6.13313 -12.4775 3 0.183425 0.723877 0.665099
-19.1512 6.14762 -12.3542 3 0.21685 0.734637 0.642872
-19.5838 6.15942 -12.1991 3 0.259974 0.741058 0.619069
-19.9972 6.16961 -12.0249 3 0.299606 0.744896 0.596126
-20.388 6.17794 -11.829 3 0.323878 0.748467 0.578706
-20.7634 6.18501 -11.6182 3 0.343457 0.7564 0.556684
-21.1194 6.19051 -11.3896 3 0.361295 0.764036 0.534522
-21.4624 6.19497 -11.1488 3 0.378472 0.771132 0.511971
-21.7942 6.19852 -10.8976 3 0.395728 0.776178 0.490864
-22.1203 6.20161 -10.6411 3 0.40406 0.776918 0.482839
-22.4134 6.20215 -10.3567 3 0.415295 0.781418 0.465742
-20.1023 5.83976 -3.97824 3 0.278738 0.848863 0.449151
-20.2812 5.83315 -3.63763 3 0.253962 0.821339 0.510789
-20.5777 5.83525 -3.38725 3 0.26615 0.803298 0.5328
-20.9779 5.84494 -3.21449 3 0.162759 0.686504 0.708677
-21.4539 5.8601 -3.09646 3 0.136146 0.599019 0.789076
-21.9978 5.8801 -3.02601 3 0.0530161 0.563912 0.824132
-22.6531 5.90804 -3.03368 3 -0.0581116 0.550373 0.832894
21.9358 4.49183 -21.6364 3 -0.0355252 0.0158585 0.999243
21.6206 4.50449 -21.6441 3 -0.035551 0.0109913 0.999307
21.3005 4.51759 -21.6584 3 -0.0308341 -0.0127095 0.999444
20.9803 4.53053 -21.6685 3 -0.0603286 -0.037478 0.997475
20.6465 4.54502 -21.7048 3 -0.0760501 -0.0547134 0.995602
20.313 4.55928 -21.7355 3 0.0050349 -0.0551049 0.998468
20.0013 4.57062 -21.7127 3 0.0654292 -0.041093 0.997011
19.6911 4.58164 -21.6831 3 0.0753081 -0.0211363 0.996936
19.3749 4.59324 -21.6627 3 0.0414175 0.0009034 0.999142
19.0438 4.60653 -21.6707 3 -0.0288167 0.0115532 0.999518
18.7029 4.62083 -21.6949 3 -0.0439589 0.0169316 0.99889
18.3684 4.63418 -21.7011 3 -0.0324582 0.0149866 0.999361
18.027 4.64819 -21.7172 3 -0.0235721 0.0162996 0.999589
17.6894 4.66157 -21.7209 3 -0.0359833 0.0189305 0.999173
17.3378 4.67644 -21.7491 3 -0.0353004 0.0288725 0.99896
16.9939 4.69022 -21.7568 3 0.0064748 0.0308742 0.999502
16.658 4.70289 -21.7439 3 0.0205219 0.0338274 0.999217
16.3177 4.71592 -21.7359 3 0.0032261 0.025001 0.999682
15.9641 4.73032 -21.7499 3 -0.0086302 0.0261625 0.99962
15.6151 4.74402 -21.7504 3 -0.0026794 0.0230757 0.99973
15.2665 4.75752 -21.7461 3 -0.0209316 0.0239031 0.999495
14.9019 4.77267 -21.7682 3 -0.0578045 0.0311685 0.997841
14.5304 4.78842 -21.7988 3 -0.0444707 0.0395078 0.998229
14.1777 4.80186 -21.789 3 -0.06305 0.0366597 0.997337
13.7856 4.81956 -21.8491 3 0.0883446 0.0296386 0.995649
13.4432 4.83153 -21.8114 3 0.157419 0.049359 0.986298
13.1892 4.83359 -21.6071 3 0.222728 0.0627699 0.972858
13.1407 4.78751 -20.3652 3 0.902601 0.379022 0.204091
13.0399 4.77317 -19.8919 3 0.89581 0.366684 0.251134
12.8929 4.76399 -19.5049 3 0.85357 0.386 0.34989
12.7325 4.75633 -19.1441 3 0.810978 0.401942 0.425157
12.5483 4.75131 -18.8272 3 0.779987 0.416297 0.467244
12.37 4.74571 -18.5014 3 0.74718 0.442871 0.495568
12.1623 4.74328 -18.2277 3 0.725237 0.458056 0.514019
11.9577 4.74055 -17.9495 3 0.712641 0.461421 0.528425
11.7551 4.73765 -17.6687 3 0.693689 0.478738 0.53815
11.5409 4.73598 -17.4081 3 0.68226 0.476203 0.554754
11.3334 4.73363 -17.1368 3 0.671498 0.475137 0.568626
11.1083 4.73311 -16.8951 3 0.656644 0.4861 0.57665
11.3244 4.48811 -10.7731 3 0.864549 0.450008 0.223714
11.2155 4.47763 -10.3913 3 0.81244 0.481121 0.329338
11.0794 4.46988 -10.0525 3 0.757617 0.489987 0.431196
10.912 4.4652 -9.76154 3 0.717328 0.47995 0.505063
10.7159 4.4633 -9.51358 3 0.648474 0.526123 0.55016
10.5052 4.46282 -9.28727 3 0.59739 0.534463 0.597892
10.2702 4.46463 -9.09565 3 0.529836 0.568589 0.629269
10.0247 4.46742 -8.91861 3 0.471655 0.594231 0.651484
9.76145 4.47183 -8.76569 3 0.388781 0.639457 0.663283
9.49604 4.4764 -8.61469 3 0.32882 0.673155 0.662374
9.20221 4.48355 -8.50179 3 0.313619 0.693195 0.64894
8.92269 4.48932 -8.36748 3 0.316174 0.716904 0.621355
8.63904 4.49542 -8.23735 3 0.28682 0.730778 0.619434
8.34418 4.50247 -8.12079 3 0.254987 0.743421 0.61831
8.03733 4.51055 -8.01849 3 0.21938 0.742133 0.633333
7.71709 4.51976 -7.93194 3 0.170232 0.729502 0.662456
7.37121 4.53119 -7.87679 3 0.144545 0.723461 0.675064
7.02364 4.54266 -7.82105 3 0.105788 0.710591 0.695608
6.64957 4.55638 -7.79674 3 0.0735748 0.677344 0.731978
6.27582 4.56995 -7.76868 3 0.0355978 0.654264 0.755428
5.87392 4.58588 -7.77311 3 0.0180224 0.608692 0.793202
5.4582 4.60287 -7.79112 3 0.0043667 0.585078 0.810965
5.03883 4.62003 -7.80961 3 -0.0547505 0.51767 0.853827
4.52434 4.6453 -7.94182 3 -0.205233 0.390236 0.89755
4.05853 4.66613 -8.00826 3 -0.138324 0.249301 0.958497
3.55657 4.68989 -8.11382 3 -0.21152 0.19713 0.957287
2.98463 4.71944 -8.29832 3 -0.304895 0.246091 0.920042
2.31429 4.75713 -8.59376 3 -0.410165 0.161453 0.897606
1.6682 4.79242 -8.85164 3 -0.41938 0.0376763 0.907029
0.841509 4.8427 -9.31408 3 -0.526334 0.184646 0.829987
0.258778 4.87195 -9.47995 3 -0.167921 0.86149 0.479206
-4.69324 5.2678 -14.7009 3 0.0497472 0.403699 0.913538
-5.15604 5.28489 -14.6737 3 0.0666359 0.420062 0.905045
-5.62667 5.30249 -14.6515 3 0.0752416 0.432341 0.898566
-6.07811 5.31834 -14.6037 3 0.123384 0.461555 0.878489
-6.50387 5.33193 -14.5235 3 0.179795 0.476786 0.860435
-6.92803 5.34527 -14.4385 3 0.193647 0.506492 0.840218
-7.34518 5.35793 -14.3428 3 0.236821 0.52329 0.818586
-7.74535 5.36909 -14.2258 3 0.219649 0.536669 0.814703
-8.16007 5.38134 -14.122 3 0.208984 0.54416 0.812536
-8.57153 5.39322 -14.012 3 0.252354 0.568244 0.783208
-8.96806 5.4038 -13.8834 3 0.279651 0.56648 0.775175
-9.34459 5.41269 -13.7315 3 0.315204 0.563656 0.763504
-9.71091 5.42069 -13.5668 3 0.341234 0.568672 0.748446
-10.0672 5.42782 -13.39 3 0.329805 0.565816 0.755699
-10.4404 5.43624 -13.2292 3 0.313347 0.575423 0.755448
-10.8564 5.44795 -13.1102 3 0.274099 0.572893 0.77244
-11.2513 5.45792 -12.9673 3 0.237576 0.564965 0.790172
-11.6824 5.47063 -12.8588 3 0.205046 0.575262 0.791852
-12.1423 5.48546 -12.7763 3 0.137027 0.575165 0.806479
-12.6497 5.50386 -12.7376 3 0.0999261 0.574591 0.812318
-13.1643 5.52267 -12.7022 3 0.0670706 0.544248 0.836239
-13.715 5.54409 -12.6979 3 0.0461078 0.506827 0.860814
-14.2417 5.5635 -12.666 3 0.0617999 0.484855 0.872408
-14.7756 5.58331 -12.637 3 0.0795834 0.485287 0.870726
-15.301 5.60232 -12.5957 3 0.0748834 0.491032 0.867917
-15.8332 5.62168 -12.5569 3 0.101496 0.494421 0.863277
-16.3679 5.64108 -12.5165 3 0.107018 0.540527 0.834492
-16.8835 5.65889 -12.4544 3 0.144337 0.564402 0.812783
-17.3634 5.6739 -12.3559 3 0.178259 0.588402 0.788674
-17.8419 5.68868 -12.253 3 0.196717 0.620242 0.759343
-18.3246 5.70367 -12.151 3 0.208173 0.646272 0.734164
-18.7834 5.71677 -12.0245 3 0.240643 0.661151 0.710613
-19.2316 5.72899 -11.886 3 0.286958 0.67542 0.67931
-19.6428 5.7384 -11.7125 3 0.335169 0.686189 0.645605
-20.021 5.74533 -11.5082 3 0.354861 0.696728 0.623413
-20.3834 5.75106 -11.2888 3 0.380924 0.711185 0.590858
-20.7292 5.75555 -11.0541 3 0.397825 0.725936 0.561028
-21.0641 5.75922 -10.8091 3 0.407342 0.732124 0.545955
-21.3895 5.76218 -10.5555 3 0.411418 0.734851 0.539193
-19.1546 5.41056 -3.72229 3 0.319068 0.829054 0.4592
-19.3951 5.4088 -3.43294 3 0.290575 0.823577 0.487122
-19.7179 5.41273 -3.20691 3 0.254445 0.792426 0.554363
-20.0923 5.42015 -3.01916 3 0.241601 0.743965 0.623013
-20.5572 5.43369 -2.89805 3 0.114283 0.616249 0.779215
-21.116 5.45353 -2.8444 3 0.0730754 0.578898 0.812118
-21.6889 5.47417 -2.79745 3 0.0185166 0.442867 0.896396
-22.3545 5.50093 -2.81461 3 -0.0422387 0.327533 0.943895
-23.1437 5.53581 -2.91666 3 -0.101378 0.401421 0.910265
21.9394 4.18191 -21.6295 3 -0.0343597 0.0269172 0.999047
21.6264 4.19334 -21.632 3 -0.0445423 0.0293629 0.998576
21.3026 4.20591 -21.6551 3 -0.0421564 0.026933 0.998748
20.98 4.21816 -21.6706 3 -0.080376 0.0102744 0.996712
20.6405 4.23222 -21.7197 3 -0.0832187 -0.0092202 0.996489
20.3107 4.24497 -21.7419 3 0.0055677 -0.0241741 0.999692
19.9978 4.25561 -21.7221 3 0.0801489 -0.0285126 0.996375
19.6856 4.26601 -21.6965 3 0.0859864 -0.0242364 0.996001
19.3765 4.27594 -21.6606 3 0.0538965 -0.0126334 0.998467
19.0491 4.2878 -21.6605 3 -0.0161362 -0.0013451 0.999869
18.7045 4.30145 -21.6928 3 -0.0360811 0.0097012 0.999302
18.372 4.31358 -21.6948 3 -0.0199181 0.0180912 0.999638
18.0332 4.32624 -21.7055 3 -0.0161837 0.0294341 0.999436
17.6947 4.33871 -21.7112 3 -0.024567 0.045002 0.998685
17.3485 4.35189 -21.7284 3 -0.0289292 0.0563111 0.997994
17.0044 4.36466 -21.7367 3 0.0031664 0.0567645 0.998383
16.6658 4.37667 -21.7294 3 0.0121823 0.0486421 0.998742
16.323 4.38899 -21.7265 3 -0.0038353 0.0410184 0.999151
15.9699 4.40226 -21.7396 3 -0.0109574 0.0443376 0.998957
15.6223 4.41479 -21.7376 3 -0.0078336 0.0264931 0.999618
15.2705 4.42761 -21.7394 3 -0.0197151 0.022397 0.999555
14.9078 4.44142 -21.7578 3 -0.056783 0.0235803 0.998108
14.5364 4.45598 -21.7885 3 -0.0450645 0.0236299 0.998705
14.1802 4.46878 -21.7853 3 -0.0691337 0.0231238 0.997339
13.7873 4.48523 -21.8469 3 0.0932599 0.0012645 0.995641
13.4518 4.49558 -21.7964 3 0.168785 0.0239186 0.985363
13.2262 4.44714 -20.2115 3 0.917518 0.331912 0.219077
13.1133 4.43513 -19.7611 3 0.903249 0.333851 0.2696
12.9842 4.42489 -19.3435 3 0.859521 0.362897 0.359903
12.8193 4.41831 -18.992 3 0.819022 0.391729 0.419228
12.6419 4.41304 -18.6645 3 0.780797 0.419025 0.463438
12.4569 4.40858 -18.3519 3 0.747285 0.46003 0.479517
12.2602 4.40531 -18.0607 3 0.725127 0.46779 0.505334
12.0674 4.40169 -17.7638 3 0.706581 0.48584 0.514493
11.8554 4.39996 -17.5004 3 0.695658 0.488805 0.526432
11.654 4.39725 -17.22 3 0.676713 0.492757 0.547037
11.4292 4.39678 -16.9789 3 0.665666 0.494066 0.559275
11.2108 4.39572 -16.7276 3 0.665666 0.494066 0.559275
11.4199 4.17027 -10.63 3 0.855243 0.439216 0.275045
11.3102 4.1607 -10.2506 3 0.838851 0.412518 0.355188
11.1704 4.15389 -9.91842 3 0.781629 0.435954 0.446095
10.9945 4.15036 -9.64115 3 0.748409 0.422251 0.511457
10.809 4.14771 -9.37875 3 0.71699 0.411649 0.562557
10.5989 4.14725 -9.15265 3 0.658838 0.441681 0.608975
10.3832 4.14728 -8.93466 3 0.598696 0.475155 0.644818
10.1504 4.1488 -8.7409 3 0.54184 0.517722 0.662098
9.90612 4.15129 -8.56285 3 0.488075 0.55135 0.676606
9.6513 4.15467 -8.3988 3 0.412623 0.600916 0.684575
9.38335 4.15914 -8.25196 3 0.377181 0.625348 0.683135
9.11108 4.16393 -8.10982 3 0.347172 0.651472 0.674578
8.83869 4.16869 -7.96656 3 0.326608 0.657828 0.678668
8.54633 4.17508 -7.84891 3 0.294525 0.666332 0.685023
8.25615 4.18123 -7.72663 3 0.238057 0.670638 0.702548
7.93501 4.18991 -7.64369 3 0.197145 0.681472 0.70479
7.59275 4.20027 -7.58621 3 0.158898 0.687289 0.708791
7.25643 4.21003 -7.51824 3 0.124188 0.680948 0.721725
6.89219 4.22201 -7.48376 3 0.0836248 0.682796 0.725807
6.50577 4.23569 -7.47454 3 0.0248887 0.673506 0.738763
6.09571 4.25117 -7.49178 3 -0.0056657 0.665159 0.74668
5.67464 4.2674 -7.51885 3 0.0088358 0.668629 0.743544
5.27045 4.28212 -7.52066 3 -0.0479808 0.689019 0.723153
4.76174 4.30512 -7.64811 3 -0.197515 0.670713 0.714935
4.16885 4.33465 -7.87305 3 -0.192689 0.587695 0.785802
3.65532 4.35758 -7.99382 3 -0.139168 0.535771 0.832815
3.15327 4.37939 -8.09489 3 -0.246752 0.237986 0.939402
2.6527 4.40089 -8.1887 3 -0.154097 0.71321 0.683802
2.17364 4.40241 -7.74516 3 0.115961 0.891735 0.437449
1.92522 4.40386 -7.53349 3 0.0769412 0.936384 0.34244
1.52423 4.41713 -7.49821 3 0.0675575 0.964645 0.254747
1.02148 4.43816 -7.57656 3 0.042512 0.970751 0.236294
0.490487 4.46117 -7.68192 3 0.0424997 0.98003 0.194255
0.115737 4.47202 -7.6051 3 0.0482191 0.973516 0.223474
-0.247027 4.48185 -7.5122 3 0.0550435 0.973472 0.222087
-0.670167 4.49618 -7.48401 3 0.0649553 0.969824 0.234992
-1.06239 4.50805 -7.41828 3 0.0651215 0.966391 0.248693
-1.44981 4.51946 -7.34444 3 0.0494772 0.966475 0.251949
-1.84965 4.5317 -7.28133 3 0.0255066 0.96992 0.242083
-2.29368 4.54714 -7.26281 3 -0.0213443 0.970082 0.241836
-2.99703 4.58172 -7.51711 3 -0.09247 0.966478 0.239521
-9.16481 5.02058 -13.5415 3 0.32076 0.562522 0.762025
-9.53862 5.02858 -13.3862 3 0.344118 0.561579 0.752471
-9.90093 5.03568 -13.2172 3 0.333842 0.544454 0.769493
-10.2742 5.04352 -13.0578 3 0.3167 0.525212 0.789844
-10.6631 5.05243 -12.9125 3 0.290374 0.496071 0.818289
-11.0751 5.06294 -12.7887 3 0.26085 0.510642 0.819269
-11.4893 5.07352 -12.6646 3 0.222088 0.512701 0.829346
-11.9367 5.0864 -12.5712 3 0.171193 0.5019 0.847814
-12.4256 5.10215 -12.5159 3 0.106425 0.489536 0.865464
-12.9448 5.11993 -12.4867 3 0.0542953 0.466449 0.88288
-13.4914 5.13952 -12.4803 3 0.0260445 0.460218 0.887424
-14.0584 5.16039 -12.4891 3 0.0389481 0.446938 0.893717
-14.5877 5.17843 -12.457 3 0.0836555 0.43931 0.894432
-15.1035 5.19539 -12.4082 3 0.0937561 0.442444 0.891882
-15.6414 5.21375 -12.3763 3 0.0952466 0.451495 0.887176
-16.1493 5.22988 -12.3123 3 0.134513 0.447642 0.884038
-16.6523 5.24554 -12.2402 3 0.183409 0.467559 0.864725
-17.1228 5.25883 -12.1348 3 0.201885 0.498804 0.842874
-17.585 5.27145 -12.019 3 0.220092 0.522064 0.82402
-18.0455 5.28385 -11.8988 3 0.237631 0.556124 0.796403
-18.494 5.29533 -11.7652 3 0.262678 0.578867 0.771954
-18.9409 5.30662 -11.6276 3 0.309461 0.599452 0.738167
-19.3525 5.31543 -11.4565 3 0.36379 0.615942 0.698765
-19.7275 5.3217 -11.2516 3 0.392331 0.630324 0.669902
-20.0747 5.32605 -11.0211 3 0.429834 0.648719 0.628018
-20.4112 5.32966 -10.7806 3 0.442056 0.658249 0.609339
-20.722 5.33152 -10.5174 3 0.427575 0.686711 0.587884
-18.3757 4.99893 -3.58968 3 0.367224 0.811627 0.454323
-18.5732 4.99468 -3.27015 3 0.342546 0.803783 0.486411
-18.8916 4.99816 -3.04467 3 0.307629 0.802018 0.511988
-19.2788 5.006 -2.87105 3 0.228248 0.747399 0.623937
-19.7136 5.01679 -2.73196 3 0.176449 0.6986 0.693414
-20.1892 5.03008 -2.62126 3 0.123684 0.639572 0.758716
-20.7798 5.0505 -2.59362 3 0.0202733 0.557204 0.830128
-21.4417 5.07525 -2.61453 3 -0.0422751 0.402158 0.914594
-22.2015 5.10593 -2.70224 3 -0.101303 0.176684 0.979041
-22.9246 5.1341 -2.75712 3 -0.0215236 0.249214 0.968209
-23.5875 5.15835 -2.76318 3 -0.0760678 0.426033 0.901504
21.9465 3.87165 -21.6144 3 -0.0229192 0.0405646 0.998914
21.6335 3.88216 -21.6169 3 -0.0380981 0.0462108 0.998205
21.3097 3.8937 -21.6401 3 -0.0447358 0.0493849 0.997777
20.9869 3.90499 -21.6563 3 -0.0931032 0.042312 0.994757
20.6449 3.91818 -21.7113 3 -0.0987604 0.021693 0.994875
20.3104 3.9304 -21.7441 3 -0.0040406 0.0004588 0.999992
19.995 3.94043 -21.7297 3 0.0731615 -0.0213622 0.997091
19.684 3.94987 -21.7015 3 0.0825802 -0.0348607 0.995974
19.3742 3.95905 -21.6669 3 0.0614937 -0.0292318 0.997679
19.0459 3.97004 -21.6687 3 -0.0086836 -0.018303 0.999795
18.7061 3.98208 -21.6907 3 -0.0238944 -0.0013549 0.999714
18.3756 3.99301 -21.6885 3 -0.0020664 0.019494 0.999808
18.0382 4.00451 -21.6963 3 9.5e-05 0.0416546 0.999132
17.7054 4.01539 -21.6902 3 -0.007675 0.0559416 0.998405
17.3632 4.02709 -21.6994 3 -0.0260313 0.0664358 0.997451
17.0144 4.0393 -21.7175 3 -0.0051978 0.0624615 0.998034
16.679 4.05003 -21.704 3 -0.001602 0.0523509 0.998628
16.3292 4.06205 -21.7152 3 -0.0037632 0.0499262 0.998746
15.9798 4.07388 -21.7211 3 -0.0216376 0.0517556 0.998425
15.6281 4.08579 -21.7273 3 -0.0206171 0.0306536 0.999317
15.2742 4.09777 -21.7332 3 -0.0259559 0.0200073 0.999463
14.9124 4.11038 -21.7501 3 -0.0518756 0.0159466 0.998526
14.5381 4.12404 -21.7864 3 -0.0430053 0.0249797 0.998762
14.1819 4.13579 -21.7832 3 -0.0385285 0.0176422 0.999102
13.7911 4.1507 -21.8408 3 -0.0216057 0.0239806 0.999479
13.465 4.15933 -21.7729 3 0.0683809 -0.0057409 0.997643
13.3974 4.12178 -20.5603 3 0.922386 0.324051 0.210227
13.3122 4.1081 -20.0569 3 0.922435 0.301692 0.241033
13.1878 4.09818 -19.6285 3 0.900312 0.322237 0.292579
13.0566 4.089 -19.2157 3 0.865195 0.354341 0.354796
12.9073 4.08157 -18.8379 3 0.822315 0.395697 0.408928
12.742 4.07568 -18.4907 3 0.786137 0.425716 0.448057
12.5546 4.07184 -18.1836 3 0.770479 0.436714 0.464374
12.3618 4.06853 -17.8872 3 0.739507 0.453419 0.497535
12.1623 4.06586 -17.6033 3 0.718396 0.472591 0.510456
11.9652 4.063 -17.3162 3 0.694861 0.487484 0.528704
11.7593 4.06095 -17.0448 3 0.676713 0.492757 0.547037
11.5424 4.05988 -16.7923 3 0.672657 0.49554 0.54952
11.7391 3.90794 -12.3627 3 0.755113 0.599876 0.264489
11.5913 3.86547 -10.919 3 0.803063 0.473586 0.361672
11.5174 3.85365 -10.4838 3 0.836154 0.465284 0.290442
11.3951 3.84593 -10.1245 3 0.792955 0.483075 0.371298
11.2477 3.84034 -9.80467 3 0.764956 0.453339 0.457521
11.0758 3.8368 -9.52246 3 0.727449 0.435816 0.529982
10.8889 3.83451 -9.26314 3 0.705091 0.430245 0.56368
10.6904 3.83318 -9.02123 3 0.670785 0.426285 0.606901
10.4722 3.83345 -8.80787 3 0.630887 0.434599 0.642733
10.2488 3.83412 -8.60185 3 0.586097 0.44508 0.677048
10.0177 3.83541 -8.40648 3 0.543645 0.452182 0.707094
9.7694 3.83804 -8.23468 3 0.494164 0.463573 0.73546
9.51645 3.84101 -8.0685 3 0.449823 0.468368 0.760454
9.24633 3.84529 -7.92496 3 0.426775 0.475139 0.769485
8.97686 3.84949 -7.77927 3 0.396248 0.482823 0.780941
8.69909 3.85428 -7.64354 3 0.361869 0.500753 0.786318
8.40755 3.8601 -7.52479 3 0.300923 0.554454 0.775904
8.10551 3.86666 -7.41825 3 0.242527 0.580503 0.777301
7.78792 3.87435 -7.33025 3 0.203674 0.603058 0.771258
7.44787 3.88367 -7.26928 3 0.159026 0.624508 0.764657
7.10103 3.89342 -7.2144 3 0.122663 0.636721 0.761275
6.72046 3.90562 -7.19993 3 0.0383422 0.658951 0.751208
6.33639 3.91797 -7.18645 3 0.0262582 0.675736 0.736676
5.93596 3.93143 -7.19008 3 0.0392468 0.717538 0.695413
5.55086 3.94362 -7.17078 3 0.0349668 0.744528 0.666675
5.1506 3.95682 -7.16683 3 -0.0554127 0.774765 0.629816
4.63429 3.97844 -7.30173 3 -0.125619 0.812162 0.569748
4.09119 4.00183 -7.46324 3 -0.0901268 0.801815 0.590737
3.68344 4.01514 -7.45484 3 -0.0130419 0.817879 0.575242
3.36939 4.02152 -7.33053 3 0.159224 0.886933 0.433587
3.07493 4.02642 -7.18122 3 0.200818 0.916913 0.34488
2.89653 4.02293 -6.89386 3 0.227333 0.918545 0.323412
2.7098 4.02007 -6.61717 3 0.216483 0.913828 0.34359
2.41981 4.0246 -6.46089 3 0.19071 0.908201 0.37256
2.08382 4.03235 -6.35623 3 0.159701 0.896815 0.412576
1.72057 4.04197 -6.28056 3 0.137929 0.891702 0.431096
1.35068 4.05196 -6.20982 3 0.127006 0.89779 0.421714
0.973345 4.0624 -6.14478 3 0.113834 0.90838 0.402352
0.617239 4.07126 -6.05339 3 0.0942769 0.91967 0.381207
0.250058 4.08081 -5.97187 3 0.0787894 0.926535 0.367865
-0.178723 4.09454 -5.95518 3 0.0674311 0.930821 0.359202
-0.650303 4.11111 -5.9813 3 0.0562327 0.936993 0.344792
-1.0592 4.12323 -5.93573 3 0.0503658 0.941044 0.334513
-1.47086 4.13544 -5.88997 3 0.0326721 0.948452 0.315233
-1.9087 4.14932 -5.86875 3 0.0022928 0.949496 0.31377
-2.42549 4.16844 -5.92676 3 -0.038078 0.951047 0.306693
-3.20096 4.20484 -6.24893 3 -0.102017 0.948951 0.298472
-4.44099 4.27214 -7.04102 3 -0.149459 0.949144 0.277105
-10.5002 4.6612 -12.7459 3 0.290374 0.496071 0.818289
-10.8955 4.66979 -12.6064 3 0.257847 0.480934 0.837984
-11.3255 4.68061 -12.4998 3 0.223843 0.462322 0.857993
-11.7665 4.69207 -12.4014 3 0.173737 0.459817 0.870852
-12.2297 4.70489 -12.322 3 0.11292 0.450687 0.885512
-12.7494 4.72131 -12.295 3 0.0458429 0.430092 0.90162
-13.2787 4.73823 -12.2732 3 0.0090947 0.412117 0.911086
-13.8663 4.7588 -12.3036 3 0.0150615 0.404274 0.914514
-14.4107 4.7764 -12.2875 3 0.067926 0.396633 0.915461
-14.9179 4.79146 -12.2318 3 0.0939408 0.401198 0.911162
-15.4463 4.80777 -12.1925 3 0.0996228 0.40936 0.906918
-15.9721 4.82378 -12.1468 3 0.127777 0.418092 0.899373
-16.4604 4.83727 -12.0624 3 0.191696 0.421157 0.886498
-16.9367 4.8499 -11.9637 3 0.238739 0.430553 0.870418
-17.386 4.86072 -11.8376 3 0.262126 0.445821 0.855882
-17.8264 4.8709 -11.7008 3 0.266586 0.465194 0.844113
-18.2787 4.88174 -11.5721 3 0.289532 0.501084 0.815528
-18.713 4.89137 -11.4249 3 0.334477 0.52058 0.785571
-19.1104 4.89864 -11.243 3 0.37105 0.534956 0.759042
-19.4755 4.90384 -11.0311 3 0.433894 0.556838 0.708285
-19.8262 4.90812 -10.8056 3 0.464552 0.604272 0.647339
-20.1377 4.90995 -10.5454 3 0.445633 0.625002 0.640924
-17.6823 4.5975 -3.51785 3 0.34995 0.836174 0.422313
-17.842 4.59145 -3.17117 3 0.362552 0.827354 0.429001
-18.1221 4.5925 -2.9193 3 0.334391 0.808815 0.483737
-18.4705 4.59756 -2.71989 3 0.28187 0.754904 0.592173
-18.863 4.60516 -2.55302 3 0.235703 0.69889 0.675276
-19.3041 4.61553 -2.42133 3 0.148898 0.67567 0.72201
-19.8137 4.62979 -2.33886 3 0.0984539 0.624274 0.774976
-20.4013 4.64846 -2.31135 3 -0.0289098 0.576491 0.816592
-21.184 4.67822 -2.42384 3 -0.150273 0.418339 0.895774
-22.1773 4.71984 -2.68411 3 -0.26113 -0.0079691 0.965271
-22.8779 4.74445 -2.72291 3 0.135275 0.0847128 0.98718
-23.3594 4.75641 -2.59855 3 0.08688 0.334922 0.938232
-24.2242 4.79003 -2.74531 3 -0.337416 0.422249 0.841342
-29.389 5.06653 -5.92862 3 -0.0642187 0.635238 0.769642
21.9499 3.56188 -21.6079 3 -0.0096871 0.045532 0.998916
21.6382 3.57133 -21.6075 3 -0.0283715 0.0508082 0.998305
21.3206 3.58124 -21.6164 3 -0.0378094 0.0612083 0.997409
20.9967 3.59164 -21.6354 3 -0.0964118 0.0537362 0.99389
20.6521 3.60393 -21.6964 3 -0.119311 0.0372766 0.992157
20.312 3.61561 -21.742 3 -0.0302079 0.0063304 0.999524
19.9933 3.62507 -21.7347 3 0.0548528 -0.0231208 0.998227
19.6792 3.63397 -21.7134 3 0.0685181 -0.0436141 0.996696
19.3678 3.64249 -21.6822 3 0.0589805 -0.0463121 0.997184
19.0417 3.65229 -21.6791 3 0.0045448 -0.0356327 0.999355
18.7058 3.66289 -21.6927 3 -0.0007518 -0.0067835 0.999977
18.3797 3.67245 -21.681 3 0.0079217 0.0193943 0.99978
18.0444 3.68273 -21.6846 3 0.0207904 0.0411375 0.998937
17.7174 3.69212 -21.6665 3 0.0042997 0.0549069 0.998482
17.3737 3.70292 -21.6789 3 -0.0239922 0.0548954 0.998204
17.0263 3.71393 -21.6945 3 -0.0092323 0.046198 0.99889
16.6874 3.72403 -21.6881 3 -0.0028774 0.0497678 0.998757
16.3401 3.73476 -21.6945 3 -0.0135993 0.0473251 0.998787
15.9966 3.74503 -21.6891 3 -0.0298001 0.0456806 0.998511
15.6305 3.75718 -21.7236 3 -0.0361649 0.0395403 0.998563
15.278 3.76798 -21.727 3 -0.0440292 0.016419 0.998895
14.9141 3.77965 -21.748 3 -0.044755 0.0202461 0.998793
14.5421 3.7919 -21.7798 3 -0.0494664 0.0157673 0.998651
14.1921 3.80208 -21.7649 3 -0.0391063 0.0327421 0.998699
13.8064 3.81523 -21.8133 3 -0.0208254 0.0388104 0.99903
13.4797 3.7832 -20.411 3 0.922435 0.301692 0.241033
13.3735 3.77253 -19.9469 3 0.923264 0.293622 0.247731
13.2657 3.76213 -19.4897 3 0.908078 0.303498 0.288588
13.1311 3.75409 -19.0843 3 0.879208 0.338562 0.335214
12.9793 3.74756 -18.7121 3 0.840353 0.383728 0.382831
12.8246 3.74135 -18.3474 3 0.802477 0.413869 0.429817
12.654 3.73651 -18.0126 3 0.770479 0.436714 0.464374
12.7479 3.55096 -11.9058 3 0.191751 0.941839 0.275993
12.5213 3.55174 -11.702 3 0.302459 0.929845 0.209539
12.3005 3.55206 -11.4888 3 0.337335 0.918999 0.204073
12.0714 3.55302 -11.2883 3 0.436058 0.866079 0.24446
11.9221 3.54789 -10.9653 3 0.563106 0.792642 0.233732
11.8083 3.54012 -10.5903 3 0.608431 0.757121 0.237865
11.6784 3.53365 -10.2422 3 0.633649 0.686679 0.356314
11.5284 3.52875 -9.92608 3 0.613189 0.695047 0.375378
11.3674 3.52472 -9.62814 3 0.652644 0.632881 0.416554
11.1746 3.52309 -9.37807 3 0.650884 0.580751 0.488956
10.9778 3.52177 -9.13432 3 0.641986 0.530458 0.553596
10.7729 3.52107 -8.90283 3 0.628008 0.486195 0.607635
10.5626 3.52076 -8.67919 3 0.609584 0.444276 0.656526
10.3334 3.52184 -8.48254 3 0.590276 0.418494 0.690244
10.098 3.52334 -8.29409 3 0.55749 0.389 0.733406
9.86288 3.52482 -8.10487 3 0.520259 0.35889 0.774937
9.60082 3.52821 -7.95236 3 0.485445 0.348578 0.801771
9.3291 3.53226 -7.81199 3 0.456184 0.340205 0.822287
9.06677 3.5356 -7.65755 3 0.443735 0.355714 0.822537
8.7937 3.53967 -7.51649 3 0.417251 0.36675 0.831502
8.51986 3.54376 -7.37517 3 0.370557 0.389548 0.843172
8.22235 3.54946 -7.26388 3 0.322746 0.428775 0.843793
7.91376 3.55588 -7.16534 3 0.265359 0.499618 0.824601
7.60169 3.56248 -7.0693 3 0.231921 0.549187 0.802874
7.27599 3.56996 -6.98879 3 0.165948 0.593596 0.787468
6.92181 3.57932 -6.94241 3 0.112107 0.627718 0.770326
6.55962 3.58915 -6.90328 3 0.121239 0.674082 0.728639
6.19158 3.59928 -6.86847 3 0.0898024 0.701386 0.707102
5.84345 3.60797 -6.80567 3 0.0786937 0.746946 0.660211
5.4849 3.61728 -6.75311 3 0.107904 0.7664 0.633236
5.13207 3.62612 -6.69068 3 0.113142 0.784199 0.610107
4.78207 3.63469 -6.62209 3 0.119917 0.815016 0.566894
4.42945 3.64336 -6.55408 3 0.167842 0.785796 0.595277
4.0781 3.65187 -6.48193 3 0.231437 0.680878 0.694868
3.74912 3.65883 -6.38065 3 0.273709 0.686455 0.673694
3.45152 3.66366 -6.24033 3 0.242622 0.757289 0.606339
3.15199 3.66858 -6.10083 3 0.227313 0.844385 0.485122
2.84998 3.67362 -5.96274 3 0.232229 0.81477 0.531244
2.51924 3.68047 -5.85616 3 0.210828 0.824937 0.524433
2.184 3.68755 -5.75271 3 0.194763 0.829321 0.523732
1.85382 3.69425 -5.64147 3 0.189979 0.840426 0.507535
1.52476 3.70081 -5.52701 3 0.184176 0.854401 0.48588
1.19878 3.70713 -5.40723 3 0.177808 0.864638 0.469878
0.871068 3.71349 -5.28754 3 0.193138 0.842223 0.503347
0.530033 3.72065 -5.18058 3 0.167289 0.849133 0.500986
0.164525 3.72927 -5.09811 3 0.139367 0.859921 0.491032
-0.223272 3.73922 -5.03713 3 0.158213 0.855046 0.493827
-0.614329 3.74929 -4.97681 3 0.121085 0.908864 0.399129
-0.970639 3.75712 -4.8769 3 0.119053 0.90902 0.399386
-1.36974 3.76752 -4.81967 3 0.0778039 0.91326 0.399878
-1.83067 3.78163 -4.82382 3 0.017677 0.929678 0.36795
-2.34614 3.79897 -4.88029 3 -0.0380399 0.936401 0.348863
-2.9804 3.82341 -5.05346 3 -0.0764686 0.942825 0.324396
-3.89252 3.86451 -5.50177 3 -0.132769 0.9399 0.314581
-5.43402 3.94332 -6.572 3 -0.186418 0.940666 0.283542
-11.5939 4.29956 -12.2291 3 0.171518 0.435722 0.883588
-12.0589 4.3114 -12.153 3 0.0980753 0.414608 0.9047
-12.572 4.32601 -12.1208 3 0.0715111 0.411887 0.908425
-13.1214 4.34267 -12.1201 3 0.0148584 0.396745 0.917809
-13.6936 4.36054 -12.1368 3 0.0066694 0.389583 0.920967
-14.2503 4.37736 -12.1339 3 0.0553371 0.394066 0.917415
-14.7728 4.39202 -12.094 3 0.097573 0.394367 0.913758
-15.2864 4.40605 -12.0419 3 0.105701 0.3946 0.912753
-15.8047 4.42025 -11.9903 3 0.124198 0.400211 0.907968
-16.3102 4.43358 -11.9232 3 0.168231 0.401228 0.900397
-16.7741 4.44441 -11.8144 3 0.227157 0.403049 0.886539
-17.2129 4.4537 -11.6798 3 0.285433 0.40656 0.867892
-17.6549 4.46311 -11.5457 3 0.282351 0.426165 0.859454
-18.0955 4.47236 -11.4079 3 0.297939 0.464951 0.833698
-18.5187 4.48055 -11.2522 3 0.323823 0.510766 0.796402
-18.9153 4.48717 -11.071 3 0.38049 0.539628 0.751019
-19.2917 4.49259 -10.8704 3 0.428116 0.561719 0.707947
-16.8403 4.19234 -3.32192 3 0.311298 0.876976 0.36607
-17.0372 4.18892 -3.00776 3 0.30156 0.853651 0.424667
-17.3227 4.19029 -2.76393 3 0.283694 0.823775 0.490828
-17.6772 4.19535 -2.57332 3 0.23077 0.764238 0.602234
-18.0833 4.20313 -2.42122 3 0.242802 0.720282 0.649801
-18.5022 4.21153 -2.27705 3 0.242765 0.662067 0.709036
-18.9534 4.22159 -2.15533 3 0.175389 0.592905 0.785941
-19.4729 4.23518 -2.08251 3 0.0746594 0.543721 0.835938
-20.0683 4.25267 -2.06292 3 0.0341777 0.481873 0.875574
-20.7946 4.2769 -2.13588 3 -0.205065 0.399846 0.893349
-22.2338 4.33822 -2.7252 3 -0.373003 -0.0501421 0.926474
-22.8613 4.35683 -2.71047 3 0.19474 0.0999448 0.97575
-23.2439 4.3626 -2.51504 3 0.314595 0.169104 0.934042
-23.833 4.379 -2.46561 3 -0.114774 0.284117 0.951895
-28.8646 4.62423 -5.55698 3 -0.0587458 0.6226 0.780332
-29.6407 4.64921 -5.60438 3 -0.0694214 0.59488 0.800811
21.9572 3.2518 -21.5922 3 0.0013219 0.0465488 0.998915
21.649 3.26002 -21.5839 3 -0.019792 0.0525571 0.998422
21.3296 3.26913 -21.5971 3 -0.0340349 0.0619359 0.9975
21.0042 3.27866 -21.6196 3 -0.105862 0.0520188 0.993019
20.6584 3.28986 -21.6836 3 -0.143376 0.0371691 0.98897
20.3135 3.30083 -21.7399 3 -0.0634713 0.0120358 0.997911
19.9898 3.30982 -21.744 3 0.0298081 -0.0200211 0.999355
19.6711 3.31824 -21.7324 3 0.062038 -0.0460773 0.99701
19.3613 3.32579 -21.6976 3 0.0586556 -0.0535125 0.996843
19.0365 3.33453 -21.6916 3 0.0229561 -0.0380921 0.999011
18.705 3.34373 -21.6957 3 0.0318646 -0.0126527 0.999412
18.3833 3.35198 -21.6747 3 0.0363302 0.0151861 0.999224
18.0553 3.36065 -21.663 3 0.0294896 0.037006 0.99888
17.7253 3.36938 -21.6514 3 -0.0009282 0.0384975 0.999258
17.3816 3.37914 -21.664 3 -0.0265991 0.0374477 0.998945
17.0338 3.38912 -21.6804 3 -0.0198304 0.0430162 0.998877
16.6911 3.39855 -21.6819 3 -0.0046875 0.0390777 0.999225
16.3464 3.40803 -21.6832 3 -0.0145214 0.0367722 0.999218
16.0029 3.4173 -21.6777 3 -0.0269108 0.0387997 0.998885
15.6343 3.42848 -21.7174 3 -0.0331897 0.0380851 0.998723
15.5391 3.14956 -11.2949 3 0.189442 0.9654 0.179206
15.2937 3.15216 -11.1422 3 0.0977354 0.968153 0.230494
14.988 3.15908 -11.0884 3 0.0397618 0.952278 0.302632
14.638 3.16911 -11.1045 3 0.019332 0.947607 0.318852
14.2783 3.17972 -11.1324 3 0.0137055 0.962861 0.269649
13.9127 3.19064 -11.1657 3 0.0416355 0.959586 0.278317
13.5613 3.20044 -11.1718 3 0.0554121 0.959376 0.276636
13.2501 3.20731 -11.1105 3 0.122574 0.946213 0.299427
12.981 3.21117 -10.9803 3 0.175686 0.936904 0.302235
12.74 3.21303 -10.8048 3 0.229548 0.929123 0.289892
12.5241 3.21315 -10.5899 3 0.295718 0.907559 0.298141
12.3199 3.21245 -10.3569 3 0.36749 0.889029 0.273089
12.1215 3.21137 -10.1156 3 0.421651 0.856457 0.297812
11.953 3.20826 -9.82946 3 0.45511 0.831071 0.31968
11.7638 3.20659 -9.57555 3 0.444864 0.799264 0.40407
11.5567 3.20614 -9.34868 3 0.467046 0.758735 0.454081
11.337 3.20653 -9.14039 3 0.511668 0.691726 0.509619
11.1197 3.20676 -8.92851 3 0.526375 0.631749 0.569054
10.8855 3.20811 -8.74095 3 0.53858 0.561895 0.627857
10.6487 3.20963 -8.55667 3 0.543578 0.485338 0.684814
10.4116 3.21114 -8.37206 3 0.522531 0.409815 0.747672
10.1682 3.21305 -8.19586 3 0.52999 0.36142 0.767129
9.91962 3.21528 -8.02625 3 0.512804 0.299646 0.804515
9.65893 3.21827 -7.87251 3 0.486243 0.266877 0.832072
9.39895 3.22119 -7.71671 3 0.476538 0.256237 0.840984
9.12675 3.22486 -7.57648 3 0.46532 0.262092 0.84545
8.85904 3.22821 -7.42888 3 0.446606 0.266216 0.854209
8.5836 3.23202 -7.29041 3 0.427082 0.286263 0.857703
8.30747 3.23584 -7.15151 3 0.38882 0.333331 0.8589
8.01853 3.24043 -7.02811 3 0.35312 0.390948 0.84998
7.71913 3.24562 -6.91671 3 0.31581 0.446711 0.837086
7.41541 3.25104 -6.80907 3 0.251461 0.528831 0.81062
7.10473 3.25684 -6.70848 3 0.189646 0.592101 0.783231
6.76253 3.26453 -6.64592 3 0.189295 0.632683 0.750919
6.43249 3.2714 -6.56539 3 0.160635 0.669439 0.725292
6.08484 3.27928 -6.50451 3 0.147954 0.688246 0.71023
5.74813 3.28643 -6.4274 3 0.142498 0.696553 0.703213
5.39126 3.29473 -6.37263 3 0.13513 0.694272 0.706913
5.04427 3.30236 -6.30302 3 0.139544 0.688826 0.711369
4.68203 3.31083 -6.24928 3 0.15955 0.682944 0.712833
4.33416 3.31838 -6.17548 3 0.209022 0.686937 0.696008
3.99989 3.32504 -6.08302 3 0.2444 0.691249 0.680032
3.69698 3.32979 -5.95141 3 0.286168 0.691163 0.663627
3.39969 3.33416 -5.81167 3 0.302179 0.690234 0.657469
3.08788 3.33935 -5.68732 3 0.284248 0.695459 0.659955
2.78088 3.34421 -5.55575 3 0.26583 0.70804 0.654227
2.45662 3.35003 -5.44226 3 0.256123 0.721854 0.642905
2.14319 3.35517 -5.31465 3 0.260115 0.722923 0.640095
1.82523 3.36053 -5.19045 3 0.255476 0.731673 0.63197
1.50439 3.36601 -5.06773 3 0.249123 0.735039 0.630599
1.1825 3.3715 -4.94442 3 0.240777 0.736664 0.631943
0.848312 3.37765 -4.83281 3 0.224649 0.737378 0.637029
0.506159 3.38419 -4.72787 3 0.205796 0.743085 0.636767
0.15317 3.39129 -4.63253 3 0.194971 0.756502 0.624252
-0.198632 3.39826 -4.53368 3 0.199072 0.776422 0.597947
-0.536279 3.40438 -4.41768 3 0.214023 0.792779 0.570697
-0.861587 3.40976 -4.28684 3 0.205518 0.809992 0.54925
-1.17813 3.41461 -4.14521 3 0.188884 0.806873 0.559714
-1.53035 3.42139 -4.03888 3 0.133664 0.776317 0.616008
-1.9582 3.43228 -4.00783 3 0.0894904 0.828803 0.552338
-2.43369 3.44569 -4.02177 3 0.0794296 0.861482 0.501537
-2.90014 3.4585 -4.02252 3 -0.0085105 0.893704 0.448576
-3.32952 3.46918 -3.9824 3 0.0238255 0.921729 0.387103
-4.84249 3.53844 -5.01139 3 -0.135936 0.946929 0.291285
-12.4175 3.93399 -11.9692 3 0.0596045 0.39639 0.916145
-12.9743 3.94947 -11.9769 3 0.0180121 0.379165 0.925154
-13.5294 3.96471 -11.9782 3 0.0120103 0.387541 0.921774
-14.0924 3.98026 -11.9827 3 0.0591857 0.398057 0.91545
-14.6276 3.99422 -11.9561 3 0.0879112 0.397502 0.913381
-15.1265 4.00614 -11.8913 3 0.104639 0.399192 0.910877
-15.6291 4.01816 -11.8263 3 0.11073 0.402823 0.908555
-16.1393 4.03048 -11.7648 3 0.156966 0.405838 0.900365
-16.6218 4.04126 -11.6743 3 0.230531 0.400099 0.887004
-17.0782 4.0506 -11.557 3 0.274166 0.401113 0.874037
-17.5046 4.05831 -11.4098 3 0.291001 0.408272 0.865235
-17.9193 4.06536 -11.2499 3 0.313105 0.424056 0.849789
-15.715 3.79182 -3.35969 3 0.34966 0.881984 0.315978
-15.926 3.78951 -3.06013 3 0.319756 0.876325 0.360293
-16.1918 3.7899 -2.80488 3 0.322231 0.865639 0.383192
-16.4882 3.79178 -2.57365 3 0.27213 0.824035 0.496902
-16.8442 3.79653 -2.3886 3 0.226537 0.794129 0.563951
-17.2767 3.80496 -2.26177 3 0.171531 0.740036 0.650325
-17.7355 3.8146 -2.15296 3 0.163254 0.669035 0.725079
-18.2065 3.82475 -2.05082 3 0.150096 0.593958 0.79037
-18.6821 3.83505 -1.94944 3 0.14684 0.50818 0.848641
-19.2065 3.8476 -1.88199 3 0.0283194 0.443634 0.89576
-19.8298 3.86476 -1.88493 3 -0.0207827 0.379287 0.925046
-20.5206 3.885 -1.93316 3 -0.160884 0.276972 0.947314
-22.3627 3.95942 -2.81923 3 -0.211995 -0.0627001 0.975257
-22.8546 3.96982 -2.70525 3 0.235595 -0.0174458 0.971695
-23.1739 3.97206 -2.46426 3 0.366907 0.0215094 0.930009
-23.7032 3.98409 -2.3726 3 -0.015223 0.119146 0.99276
-28.0295 4.1727 -4.96545 3 -0.232187 0.755519 0.612601
-29.1508 4.21139 -5.26012 3 -0.0710444 0.585495 0.807557
-30.0251 4.2384 -5.37293 3 -0.152459 0.566577 0.809782
21.9643 2.94185 -21.577 3 0.0092157 0.0485509 0.998778
21.6561 2.94919 -21.5688 3 -0.0135283 0.0508558 0.998614
21.3398 2.95708 -21.5749 3 -0.0351033 0.0496313 0.998151
21.0133 2.96567 -21.6002 3 -0.111258 0.0447318 0.992784
20.6666 2.97575 -21.6664 3 -0.167324 0.0356616 0.985257
20.3156 2.98602 -21.7366 3 -0.0920481 0.0192447 0.995569
19.9869 2.99443 -21.7517 3 -0.0324742 -0.0033852 0.999467
19.6626 3.00238 -21.7527 3 0.0323729 -0.03196 0.998965
19.3522 3.00916 -21.7189 3 0.0486713 -0.0506644 0.997529
19.0284 3.01688 -21.7104 3 0.0445343 -0.0381554 0.998279
18.7031 3.02461 -21.701 3 0.0417825 -0.0226028 0.998871
18.3849 3.0317 -21.6726 3 0.0492679 -0.0053706 0.998771
18.0589 3.0393 -21.6568 3 0.0406377 0.0036836 0.999167
17.731 3.04693 -21.6409 3 0.0014618 0.0223954 0.999748
17.3852 3.0558 -21.6578 3 -0.0223766 0.0263642 0.999402
17.0354 3.06485 -21.6783 3 -0.0245619 0.0292727 0.99927
16.9014 2.81628 -11.2303 3 0.178752 0.970796 0.160006
16.6647 2.81828 -11.0731 3 0.217632 0.930664 0.29411
16.4339 2.81986 -10.9045 3 0.222715 0.90065 0.373132
16.1816 2.82283 -10.772 3 0.238984 0.870406 0.430441
15.9234 2.82616 -10.6478 3 0.217527 0.845859 0.487036
15.6492 2.83048 -10.5491 3 0.165008 0.857812 0.486755
15.3678 2.83522 -10.4602 3 0.127401 0.863512 0.487972
15.0566 2.84182 -10.4182 3 0.109198 0.859115 0.499997
14.7501 2.84805 -10.3655 3 0.0799746 0.887522 0.453772
14.431 2.85501 -10.3304 3 0.0782913 0.913155 0.400023
14.1205 2.86135 -10.2785 3 0.105582 0.913021 0.394012
13.8268 2.86657 -10.197 3 0.115358 0.928568 0.352779
13.5288 2.872 -10.1201 3 0.109137 0.940271 0.322458
13.2383 2.87692 -10.0293 3 0.1733 0.919251 0.353474
12.9702 2.8804 -9.90159 3 0.211945 0.90802 0.361358
12.7209 2.88269 -9.74355 3 0.266458 0.882262 0.388091
12.4803 2.88442 -9.57148 3 0.300858 0.855248 0.421942
12.246 2.88576 -9.38911 3 0.343358 0.822206 0.453964
12.0088 2.88725 -9.21047 3 0.365032 0.789609 0.493224
11.7718 2.88872 -9.03092 3 0.394991 0.757241 0.520161
11.5287 2.89054 -8.85973 3 0.383953 0.696209 0.606526
11.279 2.89273 -8.69734 3 0.395343 0.638638 0.660186
11.0158 2.89571 -8.55359 3 0.411009 0.573507 0.708633
10.7616 2.89812 -8.39575 3 0.423849 0.506851 0.750636
10.4981 2.90105 -8.24993 3 0.433545 0.429525 0.792179
10.2397 2.90366 -8.09595 3 0.450001 0.366633 0.814297
9.96903 2.90695 -7.95785 3 0.459987 0.28352 0.841444
9.70387 2.90989 -7.81085 3 0.470496 0.233924 0.850831
9.43544 2.91299 -7.66714 3 0.478579 0.200822 0.854771
9.17891 2.91538 -7.50602 3 0.475736 0.195758 0.857528
8.9083 2.91855 -7.36292 3 0.470452 0.205204 0.858234
8.6337 2.92192 -7.22388 3 0.459896 0.231753 0.857197
8.36647 2.92483 -7.07374 3 0.452781 0.266602 0.850831
8.09108 2.92818 -6.93318 3 0.428092 0.316966 0.846327
7.81593 2.93148 -6.79098 3 0.397938 0.369021 0.839922
7.52996 2.93536 -6.66148 3 0.366839 0.433058 0.823341
7.23508 2.93969 -6.54188 3 0.304243 0.516924 0.800141
6.93369 2.94433 -6.42887 3 0.257097 0.568083 0.781781
6.62101 2.94956 -6.32829 3 0.216953 0.608881 0.763018
6.29096 2.95568 -6.24739 3 0.185348 0.626789 0.756823
5.94984 2.96235 -6.17788 3 0.14839 0.630261 0.762071
5.59377 2.96976 -6.12419 3 0.130213 0.618649 0.774802
5.23132 2.97745 -6.07547 3 0.131344 0.608345 0.782729
4.86627 2.98521 -6.027 3 0.161788 0.598697 0.784466
4.51647 2.99209 -5.95735 3 0.211109 0.598742 0.77262
4.1797 2.99821 -5.86967 3 0.252918 0.601734 0.757594
3.87229 3.00273 -5.74512 3 0.308277 0.608762 0.731009
3.57454 3.0067 -5.60762 3 0.336577 0.62205 0.706944
3.28084 3.01042 -5.46397 3 0.329382 0.633325 0.700291
2.98824 3.01405 -5.31769 3 0.31608 0.649108 0.691919
2.66712 3.01913 -5.2026 3 0.299721 0.657516 0.691259
2.36489 3.02319 -5.0643 3 0.287693 0.671028 0.683341
2.04672 3.02803 -4.9424 3 0.279769 0.674283 0.683427
1.72797 3.03286 -4.8194 3 0.269083 0.674769 0.687227
1.40236 3.038 -4.70223 3 0.261002 0.675694 0.689432
1.07596 3.04314 -4.58409 3 0.246154 0.674846 0.695694
0.747465 3.04834 -4.4664 3 0.228664 0.674055 0.702398
0.398459 3.05452 -4.36892 3 0.220294 0.674647 0.704502
0.0559164 3.06033 -4.26237 3 0.230958 0.674758 0.700971
-0.283591 3.06594 -4.15057 3 0.252245 0.670847 0.697378
-0.606728 3.07069 -4.01964 3 0.255357 0.657248 0.709097
-0.942416 3.07602 -3.90012 3 0.245414 0.649157 0.719977
-1.30327 3.08254 -3.80471 3 0.199649 0.651806 0.731634
-1.68165 3.08988 -3.72497 3 0.192666 0.664579 0.721952
-2.06056 3.09717 -3.64326 3 0.207167 0.730867 0.65032
-2.40745 3.10285 -3.52683 3 0.2076 0.741189 0.638389
-2.75147 3.10834 -3.4056 3 0.190551 0.799021 0.570312
-3.11062 3.11452 -3.29747 3 0.160363 0.817911 0.552545
-3.49143 3.12169 -3.20853 3 0.096922 0.794562 0.599398
-3.966 3.1333 -3.20842 3 -0.0575532 0.846879 0.528662
-4.85573 3.16462 -3.60521 3 -0.122405 0.944588 0.304583
-13.9033 3.58349 -11.8016 3 0.0355769 0.399623 0.915989
-14.4349 3.5958 -11.7731 3 0.0686885 0.414837 0.907299
-14.9477 3.60714 -11.7228 3 0.101779 0.410724 0.906061
-15.4726 3.61894 -11.68 3 0.121951 0.413933 0.902102
-15.9868 3.63016 -11.6235 3 0.147923 0.417347 0.896627
-16.4735 3.64 -11.538 3 0.170057 0.407654 0.897161
-16.942 3.64892 -11.4328 3 0.25542 0.41138 0.874944
-14.5948 3.4089 -3.85726 3 0.453017 0.869219 0.198076
-14.7066 3.40248 -3.47733 3 0.452477 0.853917 0.257079
-14.8799 3.39882 -3.14967 3 0.422146 0.862213 0.279966
-15.0981 3.39716 -2.85951 3 0.385608 0.855428 0.34576
-15.3665 3.39772 -2.61024 3 0.342298 0.830482 0.439467
-15.6675 3.39969 -2.38671 3 0.301089 0.836277 0.458243
-15.9951 3.40281 -2.1837 3 0.272989 0.824146 0.496246
-16.3751 3.40818 -2.02073 3 0.199377 0.794228 0.573978
-16.8266 3.41659 -1.91173 3 0.110643 0.775871 0.621113
-17.3478 3.42794 -1.85386 3 0.0671509 0.70663 0.70439
