-4.4429823 4.5795998 -36.8796330 -0.0048461 -0.0300326 -0.9995372
3.5982255 11.2020799 -13.7809987 0.4796868 0.6012269 0.6390827
9.7883287 -6.2569796 -36.5544538 0.0163089 -0.0273966 -0.9994916
-7.1420161 -3.8359486 -36.5770369 0.0061637 -0.0274553 -0.9996040
-4.0274878 -1.6078227 18.8166072 0.7498908 -0.2840902 0.5974584
1.8333529 -8.7904543 22.1563558 0.6192541 -0.5186326 0.5895291
11.9373020 -11.6664269 -3.3029978 -0.0909156 -0.8989212 0.4285732
8.7535292 -18.0822033 -36.2555964 0.0051839 -0.0314513 -0.9994918
6.3642467 10.2076493 -6.7146237 -0.3661490 0.2487542 -0.8966919
5.8672713 -2.0628787 16.1769855 0.9688253 0.2471990 0.0164384
8.6670211 15.4764237 -18.8821679 -0.1050584 0.5683780 0.8160326
-6.2661215 -6.1139388 32.9834154 -0.9804942 0.0140687 0.1960437
2.8767302 15.6862996 -8.2811592 -0.2433700 0.3050023 -0.9207305
nan -nan -nan -nan -nan -nan
-6.3748503 -2.9566091 30.6075293 -0.6864026 0.7059626 0.1745516
-0.9253386 9.2210941 -37.0166552 -0.0011529 -0.0275304 -0.9996203
nan -nan -nan -nan -nan -nan
10.9106252 -20.0484750 -17.8383950 -0.7434639 -0.5927181 0.3097526
nan -nan -nan -nan -nan -nan
18.4363631 13.6358602 -1.3083283 -0.0536847 0.9292028 0.3656504
3.1599143 -10.1264116 8.3214502 0.1714912 -0.9095676 -0.3785201
-3.6967572 -15.1118498 -23.8980699 -0.7429992 -0.4800926 0.4663296
-9.5661178 -1.4413127 -23.4703220 -0.8092204 -0.5678106 0.1508424
13.8423270 -20.6886915 -18.7388194 -0.0677790 -0.9865638 0.1486537
7.5728789 17.9631886 -7.3987282 0.1432947 0.2949187 -0.9447167
2.7697398 6.4640791 -0.9259782 -0.4931681 0.7848551 0.3752168
nan -nan -nan -nan -nan -nan
-8.0513811 15.9684691 -22.1044124 -0.6008597 0.7906403 0.1177097
-9.6503632 -1.7707856 -36.6693360 0.0316147 -0.0132662 -0.9994121
nan -nan -nan -nan -nan -nan
-6.0414404 -22.8423370 -35.4084339 -0.8766247 -0.4797751 0.0366739
-16.3811817 -5.6355940 25.2229740 -0.7319383 0.1063310 -0.6730231
-13.8451005 22.6229948 -32.5751233 0.0180134 -0.0238411 0.9995535
nan -nan -nan -nan -nan -nan
9.5644388 -17.7821040 -14.9657989 -0.2385503 -0.6724412 0.7006544
-2.3713518 6.3417976 -5.0557566 0.4229074 -0.5920350 0.6860349
-11.3854570 4.7368037 -36.8544910 0.0017564 -0.0320614 -0.9994844
0.7870326 -2.2138204 24.4478832 0.7693993 0.1432125 0.6225069
-13.9590158 7.9731705 -13.8113246 -0.9278790 0.0504882 -0.3694475
-15.7428667 -3.1515925 25.4977025 -0.5611450 0.8156038 -0.1410913
nan -nan -nan -nan -nan -nan
-6.0976212 -4.4038299 29.9307554 -0.7614486 -0.6121178 -0.2133256
-2.6378429 -5.2447586 18.9986566 -0.6236639 0.5540958 0.5513811
3.9971042 0.4867166 21.1323092 0.9580261 0.1370828 0.2517823
0.1186076 -0.6651572 24.6784904 0.1820285 0.7513048 0.6343554
-9.6893189 -8.8092321 -33.9017654 -0.9378929 -0.3469189 -0.0020384
14.4229749 -5.0788125 5.8058533 0.4255727 -0.6475903 0.6320717
-8.9403167 -1.7874749 -28.8762285 -0.9249233 -0.3709216 -0.0832712
nan -nan -nan -nan -nan -nan
-8.3622544 11.1129174 -37.0580794 -0.0023901 -0.0289723 -0.9995774
nan -nan -nan -nan -nan -nan
-14.1040070 10.6973426 -37.0505062 0.0190362 -0.0316976 -0.9993162
5.6164559 8.9315831 -2.3943161 -0.5048248 0.7263987 0.4663656
-3.0217369 22.6678502 -32.4752188 -0.0590413 -0.0238245 0.9979712
-4.6344166 -2.7653324 -15.1825497 -0.1525294 -0.5558713 0.8171548
-13.7233748 4.5095447 -12.8401945 -0.9357260 -0.2990428 -0.1870565
-7.1261093 -5.6662415 -20.8287424 -0.8808520 -0.4633299 0.0970830
8.3280358 10.7253886 -3.2472919 -0.1177648 0.8416482 0.5270293
5.9576734 -6.1895836 -5.5653162 -0.7883374 -0.2447304 -0.5644743
-9.5067258 -1.7152068 -24.7497937 -0.8738079 -0.4841407 -0.0454696
18.2386065 -11.0563553 -11.5586875 -0.7290320 0.1207885 0.6737377
-3.8333857 -28.5233311 -33.5268099 -0.2343768 -0.9720336 -0.0147697
-7.3731262 -4.3876569 16.0328621 -0.8855700 -0.2175045 -0.4104359
-8.3942044 -0.2608468 -12.8390118 -0.1607058 -0.8312206 0.5322085
-17.9442996 18.2050618 -37.3037566 -0.2301238 -0.1780811 -0.9567289
-4.5305933 -6.4859283 -16.1153502 -0.8109609 -0.0983754 0.5767709
nan -nan -nan -nan -nan -nan
5.9816789 -20.9501608 -24.1775505 -0.2260010 -0.7898262 0.5701738
2.4327440 16.7247032 -5.2291387 -0.6600201 0.6698146 0.3401792
13.0037329 -7.2239562 -36.4643603 0.0202833 -0.0333074 -0.9992393
17.6175759 -15.7999521 -11.1413532 -0.2210151 -0.8723410 0.4360889
-16.4367898 -7.5762019 25.0857727 -0.8232796 -0.4448342 -0.3526092
4.6599967 -23.1001244 -27.3969066 -0.2906842 -0.8335687 0.4697510
nan -nan -nan -nan -nan -nan
nan -nan -nan -nan -nan -nan
4.0516353 -11.8131314 17.1255574 0.8758234 -0.4724643 0.0985441
-12.8824545 5.4966301 -20.7517095 -0.9444022 0.1978537 -0.2625994
nan -nan -nan -nan -nan -nan
-2.3424941 11.9177438 -6.5517717 -0.7657034 0.4597678 -0.4497909
2.5536371 4.3763166 -36.8856329 0.0002142 -0.0276811 -0.9996168
nan -nan -nan -nan -nan -nan
-13.3510844 21.3958885 -37.3853199 0.0174937 -0.0292172 -0.9994200
-13.5297029 -1.5229278 24.5749334 -0.4707107 0.8742242 0.1190106
-4.4125253 -3.0170099 3.5464647 -0.6118882 0.4926926 -0.6187462
18.2893159 9.5804420 -36.9504936 0.0098534 -0.0285721 -0.9995432
nan -nan -nan -nan -nan -nan
5.9179569 8.5869898 -1.5802677 -0.4115157 0.7675578 0.4914366
-5.9801130 -2.5472223 6.8561553 -0.8628570 0.3623427 -0.3523998
16.1613328 -21.6439551 -21.1372274 0.3473344 -0.8772781 0.3312732
2.8333871 -7.2633091 22.6320189 0.8437896 -0.2414005 0.4793171
-3.1950954 -7.1315776 18.9426631 -0.8231874 0.3406820 0.4542007
0.4515259 -26.8837303 -32.3847771 -0.3211784 -0.9454656 0.0542158
16.5451582 -16.4974725 -13.9182729 0.6920328 -0.3963919 -0.6032944
5.4091590 -23.6895553 -29.1531174 -0.4189155 -0.9061319 -0.0586063
8.7411939 20.7093689 -26.0652403 -0.2562924 0.9115873 0.3214385
-11.6757941 1.7264021 -32.2269549 -0.2503357 -0.2089450 0.9453433
nan -nan -nan -nan -nan -nan
5.8479185 7.3375330 0.7216345 -0.3637623 0.8217484 0.4386417
4.7424620 -2.6045216 -6.2722202 -0.4666866 -0.8379020 -0.2830618
-5.3934443 -5.3759948 35.3596315 -0.9147219 -0.1125899 0.3880817
5.7733537 -2.9250144 17.9888728 0.9708255 -0.1436762 0.1919768
9.1210772 8.4979570 -36.9872354 0.0035731 -0.0267583 -0.9996355
10.9009483 5.5785656 5.7456241 -0.3090121 0.7245155 0.6161078
nan -nan -nan -nan -nan -nan
4.3602746 -17.8626421 -17.6179158 -0.3155790 -0.9062573 0.2812606
19.7267808 -14.6484901 -20.3164254 0.5481000 0.0437494 0.8352679
3.1346012 -22.4058766 -31.1786183 -0.3200669 -0.8534529 0.4113092
-5.4271511 -4.5856091 27.4331164 -0.9060014 -0.3815728 -0.1832038
10.0913088 -13.3259079 -36.3672725 0.0234808 -0.0245605 -0.9994225
16.1985851 13.2784688 -37.0477231 0.0036347 -0.0194032 -0.9998051
3.8887192 8.4506476 -11.1121989 0.4327794 0.5708471 0.6977360
6.7097416 20.3341972 -28.0998778 -0.2743614 0.9601525 -0.0532249
-7.1623985 0.9290344 -10.2307747 0.0743787 -0.9866090 0.1451567
6.4268619 -20.6030225 -23.4400984 -0.2594903 -0.8387756 0.4786650
2.4446464 4.2021166 4.9796314 -0.0121820 0.9025417 0.4304300
-13.3217710 3.2434485 -35.8269818 -0.9946157 -0.0342013 -0.0978262
-18.4204291 17.8412470 -35.2197057 -0.9580362 -0.2866215 0.0038375
nan -nan -nan -nan -nan -nan
4.0721831 -9.8384030 8.3409159 0.3491419 -0.8383221 -0.4187075
5.7809303 -7.7250401 16.0287352 0.8895381 -0.2903879 0.3526993
nan -nan -nan -nan -nan -nan
-2.5355383 -26.9381474 -36.1498984 0.0691815 -0.0311334 -0.9971182
-1.0053638 -6.6886037 28.5127777 0.9675533 -0.1142497 0.2253609
0.9094312 -12.6207945 -13.8186872 -0.3850124 -0.2048283 0.8998949
-10.6896722 -4.9027654 -34.1607941 -0.9965708 -0.0812645 -0.0155806
-10.9455031 9.5364354 -21.6378917 -0.8696183 0.4460526 -0.2116629
nan -nan -nan -nan -nan -nan
13.9260924 -2.0640423 9.2546602 0.5505334 -0.4436553 0.7071654
1.7066520 17.1212599 -37.2452240 0.0028806 -0.0341353 -0.9994131
1.7838445 19.3873436 -26.4961593 -0.1539447 0.9676687 0.1997954
-6.2516212 -13.3913593 -28.1890180 -0.8483818 -0.5276851 -0.0423888
nan -nan -nan -nan -nan -nan
-5.0117115 20.0188487 -37.3270490 -0.0096854 -0.0150582 -0.9998397
22.7037513 -8.0487093 0.3216205 0.0677886 -0.3459157 0.9358136
-1.8788826 -10.8449043 11.4382712 -0.3425315 -0.6506447 -0.6777416
-3.5662321 -3.6122257 18.6865102 0.2418221 0.5071334 0.8272471
0.9247109 -11.4465935 10.7082424 0.5329399 -0.8378753 -0.1180681
17.4814005 1.2746299 8.2852551 0.3713911 -0.2814366 0.8847950
-12.2372583 0.9389739 -20.0983647 -0.7224412 -0.6913505 -0.0106436
nan -nan -nan -nan -nan -nan
5.0334849 -1.4917865 18.3448936 0.7541842 0.5120089 0.4111607
17.7929119 -15.6492263 -36.0887040 0.0303927 -0.0263001 -0.9991920
10.3693023 -0.7784296 12.9579065 0.0689186 0.6478956 0.7586050
2.6011710 17.5982687 -37.2573019 0.0035890 -0.0293518 -0.9995627
-5.1721248 -9.9482193 -21.2043892 -0.8534898 -0.3425853 0.3926711
nan -nan -nan -nan -nan -nan
-9.9470981 -3.5962490 24.1704190 0.6950204 -0.6318414 0.3431079
4.9614766 -10.3279065 15.1983609 0.9152387 -0.4019714 -0.0275149
6.1272932 -16.8987151 -36.2852936 -0.0152497 -0.0414289 -0.9990251
1.2674477 7.3149716 -36.9667841 -0.0005040 -0.0273865 -0.9996248
-3.1325567 4.5365884 -5.9700032 0.3410299 -0.5775946 0.7416759
-10.8447333 9.3798623 -22.6104505 -0.8874140 0.4436226 -0.1252811
3.6661227 -7.7240779 20.8085439 0.6658523 -0.5114077 0.5432337
5.7263010 -11.0688964 -12.6786318 0.1017839 -0.5515996 0.8278755
2.2075688 -15.0767735 -36.2774508 -0.0226494 -0.0413545 -0.9988878
-3.3281526 -28.2300741 -32.2014253 0.2214214 -0.8769647 0.4265039
-0.3375654 -0.7760021 -2.8043643 -0.8196011 -0.5636460 -0.1027485
-10.4836168 9.8348230 -24.0882238 -0.8961568 0.4425602 -0.0323026
0.8715171 -10.3688897 22.2445760 0.5627098 -0.4552055 0.6900331
-1.7618877 -27.7988588 -35.9830194 0.0630502 -0.4729952 -0.8788061
nan -nan -nan -nan -nan -nan
-0.3763691 15.1340425 -15.2008091 0.4647723 0.7555686 0.4616306
-5.6978497 -1.2065078 9.7589810 -0.9161030 0.3748017 -0.1424040
nan -nan -nan -nan -nan -nan
2.5303366 5.6211960 0.2860870 -0.5121185 0.6926353 0.5079281
nan -nan -nan -nan -nan -nan
21.4863366 22.9593485 -26.3920391 0.0144667 0.6982307 0.7157266
5.8781683 -9.5058203 11.2623665 0.5422017 -0.8390261 -0.0453062
-14.2795291 15.3914595 -37.1944665 0.0108727 -0.0267065 -0.9995842
-3.5008616 20.7221509 -32.5509132 0.0015679 -0.0149349 0.9998872
-16.7637239 -4.8599926 25.6067395 -0.8329760 -0.0348270 -0.5522120
4.2911901 0.1125631 17.5677534 0.8579866 0.5107725 0.0545020
4.8766366 8.5710424 -6.6068924 -0.3136598 0.4607487 -0.8302579
-4.5654877 17.5507026 -20.2746013 -0.2342487 0.9694985 0.0721122
-5.2053572 -25.9592143 -34.5128255 -0.9762864 -0.2124760 -0.0414577
4.4260229 6.4228607 -9.2545296 -0.3933120 0.7237494 0.5670030
-3.6027556 -23.1461947 -31.6107660 -0.0840888 -0.0105609 0.9964023
-3.5188077 1.6970575 -10.1222300 0.2515211 -0.7195153 0.6473290
2.6229334 0.6301009 -10.4005907 -0.5744830 -0.1329166 0.8076524
-14.9023678 -2.6051652 25.3736242 -0.6333105 0.7586829 -0.1527025
2.7382768 -0.2143058 -36.7589735 -0.0004380 -0.0275712 -0.9996197
-2.7912495 -7.8378323 5.7548483 -0.6165068 -0.6593100 -0.4303832
-6.4456133 -9.0420968 31.9395093 -0.7605674 -0.6439022 -0.0832296
nan -nan -nan -nan -nan -nan
9.2912486 9.2895603 0.1916267 -0.5081850 0.7714646 0.3828713
-13.1379812 -4.4413966 26.6686485 0.4977738 -0.6197224 0.6067663
nan -nan -nan -nan -nan -nan
7.2878857 12.3534839 -5.4245630 0.4794304 0.6158664 0.6251840
-5.9601595 -22.7048250 -34.5528528 -0.9689805 -0.2272301 0.0971762
-6.4659354 -15.2950724 -31.6723432 -0.0102090 0.0005938 0.9999477
3.1270335 19.4565636 -25.9599538 -0.1395131 0.9473772 0.2881191
-9.5123117 2.0728988 -8.8251882 -0.1144922 -0.5853680 0.8026431
-2.0695180 26.2578912 -32.3486401 -0.1964502 -0.0345152 0.9799061
nan -nan -nan -nan -nan -nan
nan -nan -nan -nan -nan -nan
-0.7875862 -9.5257679 9.0260815 -0.3409997 -0.8479771 -0.4057759
-10.6149497 1.8559145 -29.8811701 -0.9497123 -0.2826368 -0.1347700
17.1344271 8.3416946 -36.9262032 0.0110149 -0.0303440 -0.9994788
0.5990747 -4.5570725 25.6496120 0.7138349 0.0454967 0.6988346
11.0408169 -15.6278697 -15.2867005 -0.5978026 0.5194575 0.6105702
1.9896150 0.1285552 -10.8437957 -0.4532546 -0.1811987 0.8727699
nan -nan -nan -nan -nan -nan
-12.3791973 -2.8021436 26.2247054 0.4980676 0.7145203 0.4913139
nan -nan -nan -nan -nan -nan
-1.4930827 -8.0959434 -36.4818683 -0.0215484 -0.0385227 -0.9990254
4.0991770 -23.0723558 -30.0538452 -0.4185821 -0.9048154 0.0780903
16.9347199 1.8986215 8.5939479 0.2928749 -0.0426529 0.9551989
2.6857903 1.9661657 -8.9017576 -0.8848425 0.2060357 -0.4178553
13.7142227 14.0225784 -4.3732713 -0.2058387 0.9785414 -0.0093396
7.2774894 20.6032365 -30.6875364 -0.3151379 0.8973682 0.3088988
nan -nan -nan -nan -nan -nan
-5.4280417 -0.6849198 -36.6982177 -0.0143476 -0.0374401 -0.9991959
-9.2893781 2.7270109 -36.7884155 -0.0000028 -0.0323116 -0.9994778
-10.6415170 -1.0052676 20.2639855 -0.5726822 0.8071132 -0.1435384
5.1270300 -5.1637264 18.4821131 0.9515583 0.1937940 0.2387062
6.7077270 -26.5175816 -33.9905628 0.4760786 -0.8622335 -0.1729239
nan -nan -nan -nan -nan -nan
1.3240700 6.2065011 -36.9361882 -0.0005435 -0.0277695 -0.9996142
-3.0496466 4.6482552 -8.3433326 0.7986689 -0.5936773 0.0983626
nan -nan -nan -nan -nan -nan
nan -nan -nan -nan -nan -nan
-10.3310456 1.0808403 -36.7393076 0.0084695 -0.0278342 -0.9995767
-6.8789981 14.6165817 -15.1904408 -0.6249321 0.7698693 0.1294648
-2.4055231 1.7625996 19.3801498 -0.5797013 0.7471897 -0.3250445
11.7500180 18.9489074 -21.5208933 -0.0990524 0.8408962 0.5320548
19.6311975 -15.0997193 -36.0478898 0.0305689 -0.0288436 -0.9991164
1.0797580 3.5603187 2.5123719 -0.6774297 0.6902682 -0.2542025
-13.4768869 4.4205461 -18.3820489 -0.9833662 0.1798897 0.0251136
nan -nan -nan -nan -nan -nan
-3.2293053 25.3613822 -37.3369174 -0.0414665 0.1197121 -0.9919423
9.8368431 1.1642054 11.1276993 0.0439638 0.7875221 0.6147163
nan -nan -nan -nan -nan -nan
-4.1845958 -5.3033203 24.4274934 -0.9853455 0.1425147 -0.0937217
-17.9373710 16.6264368 -36.3849948 -0.9056595 -0.3632955 -0.2186258
2.8139779 -3.1153802 -36.6794084 -0.0003491 -0.0274866 -0.9996221
2.5137256 14.7265815 -16.6452627 0.3451746 0.6367315 0.6895125
4.6000401 -4.5271043 19.7308816 0.9080738 -0.1863435 0.3750708
1.6117515 -10.3977359 21.6734025 0.5671168 -0.3349000 0.7524763
nan -nan -nan -nan -nan -nan
0.9017250 -22.8285333 -31.3496448 -0.0484109 0.1025438 0.9935498
12.5595254 -20.9752783 -18.5901974 0.3695360 -0.8264805 0.4247037
6.3245579 24.0609021 -33.3580114 0.2360983 0.2614258 0.9359029
0.6680702 4.8911954 -2.0499757 -0.8136224 0.5431729 0.2073204
6.8301271 -8.4211862 -4.2778912 -0.5514064 -0.8285146 -0.0975422
-17.7926642 -7.0804211 29.8868191 0.3875604 -0.7206447 0.5748636
-16.7760299 17.8580358 -32.5465684 0.0453480 -0.0279798 0.9985793
-1.4411535 -14.2246091 -17.9373623 -0.8500248 -0.4136376 0.3261314
4.2216742 18.6635129 -5.8095714 -0.6069186 0.7808509 0.1480598
-2.9084816 5.5590836 -5.2826928 0.4133788 -0.5076432 0.7559209
nan -nan -nan -nan -nan -nan
4.5433623 -21.1318992 -24.9217664 -0.1898097 -0.7750054 0.6027760
0.6894623 3.5243332 -36.8612636 -0.0007644 -0.0277469 -0.9996147
0.8398868 -3.0445003 -36.6781308 -0.0031612 -0.0287449 -0.9995818
-5.8659643 -4.6729016 5.8340480 -0.8400418 -0.1058804 -0.5320894
nan -nan -nan -nan -nan -nan
8.8318859 -6.8484345 -36.5540954 0.0149985 -0.0256005 -0.9995597
nan -nan -nan -nan -nan -nan
nan -nan -nan -nan -nan -nan
15.6073136 -12.7351631 -6.3499530 -0.1827035 -0.9828519 0.0249310
0.5406908 -11.7883473 11.3079870 0.6823087 -0.7306675 -0.0240816
-2.2408447 12.3975335 -5.7612860 -0.7963694 0.5876901 0.1428850
15.9485227 12.3421158 0.8873352 -0.0622667 0.7817875 0.6204282
-7.0680962 -5.3641349 11.9568405 -0.9665671 -0.2452124 -0.0749600
3.9690433 16.5178409 -3.9986100 -0.2076955 0.2435897 0.9473788
11.8923227 -5.3928541 -36.5466300 0.0153963 -0.0338139 -0.9993095
5.1639377 -25.2311997 -31.2654215 0.0065666 -0.0849504 0.9963635
15.6185861 11.0989651 2.3466098 -0.2063734 0.7704931 0.6031172
nan -nan -nan -nan -nan -nan
-3.8903061 -25.6986245 -36.2253106 0.0548719 0.0159787 -0.9983655
17.8527843 24.4903432 -33.8646637 -0.1696312 0.7513659 -0.6377104
4.7580765 -0.6825294 17.7728182 0.7726754 0.5521567 0.3132022
6.2488097 -7.9587232 -36.5487437 0.0025412 -0.0251491 -0.9996805
11.9875348 10.9043944 -10.6983563 -0.4924956 0.8385200 -0.2330931
2.5294422 2.0099444 19.6827147 -0.1079864 0.9705395 0.2153879
0.7236044 1.6159559 16.8028342 0.2628032 0.9039146 0.3374505
-1.8763852 8.6809915 -3.6935734 -0.0408535 -0.2104168 0.9767578
1.3778305 17.9218021 -37.2691404 0.0002762 -0.0225971 -0.9997446
-7.0680467 28.9063235 -36.5775208 -0.6758474 0.7062001 -0.2109779
-6.2038310 -21.9694367 -34.8908077 -0.9672064 -0.2423552 0.0759989
3.3571674 0.5087834 -9.6628856 -0.8929786 -0.3367373 0.2986590
nan -nan -nan -nan -nan -nan
-5.1101526 1.5243083 16.8020534 -0.5310482 0.6178283 -0.5798931
8.7375596 22.9960934 -36.4377263 0.2688218 0.3489780 -0.8977467
7.0873316 -16.2944849 -36.3180547 -0.0049413 -0.0345004 -0.9993925
10.7127210 20.7146754 -25.0410280 -0.2188333 0.8378471 0.5001241
-13.2227420 2.8331566 -11.0339617 -0.7981744 -0.5592967 -0.2238410
17.7922749 -15.4502129 -19.1998248 0.5207635 0.0004348 0.8537009
1.9234655 13.6529697 -15.2773610 0.4536020 0.7117426 0.5363467
17.9375932 -24.3207713 -34.6528732 0.2266839 -0.9678560 0.1089458
15.7278947 -14.4899251 -17.2986540 0.8072110 -0.1064354 0.5805875
-8.6730550 -0.1582127 19.4491863 -0.3728638 0.9268227 -0.0444113
-0.3720560 -16.5200152 -19.6256532 -0.5295327 -0.8245499 0.1992804
-1.8055791 -0.6475248 25.0960049 0.6631818 0.7009016 0.2625394
0.8871795 5.4742370 -8.8829405 0.1379089 -0.3061584 0.9419385
5.4105881 -9.4641145 15.0926803 0.8628367 -0.4924520 0.1140349
11.8916230 5.1973832 -36.8779962 0.0071736 -0.0307715 -0.9995007
1.4669651 3.8880342 -9.6046963 0.0108162 -0.3765308 0.9263410
11.4347806 -9.9118567 -9.3977609 -0.4121192 -0.6647710 -0.6230869
-3.0229358 -26.0271501 -36.1894336 0.0426778 0.0021876 -0.9990865
-5.0684779 -10.7176482 27.1679207 -0.7221488 -0.6837702 0.1046877
-0.2690402 14.0334368 -13.4723270 0.4974223 0.7520709 0.4323893
-1.2530312 -7.8176977 27.9055520 0.8883397 -0.4370266 0.1409265
5.1025963 30.2115834 -34.1283351 0.9592328 0.2472159 0.1369550
-3.5129125 -8.6105375 18.4262703 -0.7696434 -0.6343893 -0.0721062
-2.7651832 -11.4838063 24.2388348 0.2609598 -0.9549793 0.1411190
13.6783162 21.8548646 -35.7398091 0.0461566 0.5549120 -0.8306276
3.2510753 12.5975690 -14.9122923 0.4367394 0.6986904 0.5666484
11.4227505 11.0753587 -13.4241294 -0.3523939 0.8300262 0.4322905
-8.9226751 8.7707449 -6.1364121 -0.0304989 0.4125428 0.9104275
nan -nan -nan -nan -nan -nan
-3.9214109 18.3424543 -26.5674482 -0.2437383 0.9611671 0.1294194
-10.2192708 -0.9511659 23.0262937 0.1312750 0.7911207 0.5974068
nan -nan -nan -nan -nan -nan
-17.0452492 -3.7009652 27.1758030 -0.6181092 0.6993738 -0.3589112
nan -nan -nan -nan -nan -nan
3.8610965 -11.1531919 -12.4830693 0.0865281 -0.5124414 0.8543517
3.2477736 -3.6486340 -10.2054240 -0.3790840 -0.1465281 0.9136875
18.4629956 0.5832958 7.5876331 0.3553362 -0.3606693 0.8623537
15.6644051 -22.1758308 -23.7808156 0.4253118 -0.8951930 0.1331894
-8.6113882 14.9932014 -23.2049748 -0.9225933 0.3305563 -0.1988820
nan -nan -nan -nan -nan -nan
12.8479402 3.8304223 8.4337681 -0.0317475 0.7079187 0.7055801
-3.6245023 -5.3880148 22.6938502 -0.9390704 0.1817749 -0.2917269
-7.0743520 16.6633440 -37.2464827 -0.0031879 -0.0312164 -0.9995076
-2.8019565 -19.6272049 -36.2161770 0.0453140 -0.0037940 -0.9989656
-5.6303774 -1.4634515 -13.9027970 -0.1512742 -0.8373835 0.5252666
0.6639989 -3.8015289 -12.1087723 -0.6778696 -0.1615657 0.7172094
nan -nan -nan -nan -nan -nan
1.4874713 -26.6976282 -31.4310549 0.3379629 -0.5222445 0.7829699
-16.8628849 -3.3277734 28.8173584 0.0086551 0.9193250 0.3934038
7.6118111 -9.3897483 5.8931266 0.4741319 -0.8645426 0.1666284
-10.9048914 5.5476878 -27.5508166 -0.9777181 0.0871808 -0.1909628
-6.8171918 -1.9302532 14.1958072 -0.8502994 0.4968704 -0.1735244
6.4133233 -8.4688379 -0.8850407 -0.1995873 -0.9579752 -0.2060300
nan -nan -nan -nan -nan -nan
7.5700820 -11.4996886 -13.1734268 0.1306379 -0.5360256 0.8340325
-9.7042069 11.3473299 -26.3864169 -0.9266643 0.3742748 -0.0348093
7.9407333 -8.9250523 6.7314714 0.2444234 -0.8633080 0.4415388
-10.2227239 4.0741913 -36.8321565 0.0015501 -0.0316397 -0.9994981
3.2054998 28.9247554 -32.3593295 0.2631811 -0.0270566 0.9643670
nan -nan -nan -nan -nan -nan
17.5119549 -20.0533903 -20.3260098 0.3998639 -0.3270161 0.8562531
-4.4870237 8.4996305 -4.9573448 -0.3712556 0.2588148 0.8917310
-16.1228932 -7.0369463 24.3214077 -0.8303991 0.0469104 -0.5551907
2.1545839 -6.2301147 -36.5902394 -0.0044217 -0.0294123 -0.9995576
-2.4469983 -11.8417547 -17.3293014 -0.8027161 -0.4807178 0.3529266
6.6082991 14.6108430 -18.1921880 0.1188444 0.6528134 0.7481381
11.3464121 -20.4118180 -16.8852529 -0.1430135 -0.9675550 0.2082892
17.9003321 13.9333153 -2.2586579 -0.0011114 0.9642596 0.2649569
4.8367017 -9.6402862 -11.6900678 0.0030670 -0.4602751 0.8877711
-1.7650859 17.3881045 -20.1489772 0.1104782 0.9665236 0.2315744
-4.3988105 -16.3010102 -31.5044688 -0.7430604 -0.5106209 0.4325824
-12.6245314 20.4529151 -32.5450856 -0.0068778 0.0013145 0.9999755
5.1688602 -4.3342943 17.9463791 0.9620640 -0.1570770 0.2230690
3.3638608 22.9571068 -32.6134404 0.0096348 0.0545929 0.9984622
-0.0718140 21.0750347 -37.3955074 0.0546033 -0.0183014 -0.9983404
nan -nan -nan -nan -nan -nan
-2.9356478 11.4513884 -8.8637384 0.3725702 0.4878483 0.7894273
nan -nan -nan -nan -nan -nan
nan -nan -nan -nan -nan -nan
6.4283015 12.1552474 -15.8544221 0.1632828 0.6937866 0.7014263
-7.8959174 -1.6926349 23.3205975 0.1632610 0.3660257 0.9161719
5.3850226 -23.2237530 -31.1263614 -0.3118732 -0.8884271 0.3367971
6.3113649 12.6630461 -4.9755137 0.2939524 -0.3597068 0.8855524
-2.2373655 13.2927965 -37.1301724 -0.0018630 -0.0274223 -0.9996222
-8.3735964 9.6261893 -37.0140550 -0.0048386 -0.0302370 -0.9995310
-3.7434317 -11.4400938 27.6932234 0.4329426 -0.8751488 0.2160444
-12.8653815 8.4601986 -8.7221413 -0.5788475 0.1475526 0.8019750
-10.1366714 8.5643420 -32.1655635 -0.8308544 0.0643990 0.5527510
-10.8227441 6.6563711 -27.5567482 -0.9750918 0.0645656 -0.2121962
1.5082232 -9.1179238 6.3451151 0.0603909 -0.9755731 0.2112108
-13.3165871 2.7689036 -18.3469355 -0.8466001 -0.4785152 0.2330055
-5.5838194 -6.9429252 26.5996151 -0.8252498 0.4655041 -0.3197948
-18.7824720 19.5539720 -37.2575418 -0.6499937 0.2894741 -0.7026471
-9.3468819 -0.6361044 -29.7003278 -0.8784547 -0.4666016 -0.1029574
-3.0258544 10.3360122 -6.9084644 -0.5789238 0.6863089 -0.4402583
-5.5035667 -9.9515804 25.6637478 -0.7764983 -0.5427404 -0.3201301
-7.3722517 -16.7947475 -36.3781811 -0.6120121 -0.1212333 -0.7815009
0.9770810 2.9482539 -6.1061003 -0.7807544 0.3266445 -0.5326593
13.5722470 23.6764388 -33.9349014 -0.0978597 0.8500715 -0.5174959
19.1105934 -12.3619687 -2.7405569 -0.0624515 -0.8950125 0.4416474
-11.3612527 1.3500196 -25.7487334 -0.7998302 -0.5634122 -0.2069744
7.7475334 -5.6109535 13.9714008 0.5702186 -0.5226093 0.6338220
9.9262846 11.0664176 -8.1127069 -0.5493472 0.6376175 -0.5400570
-5.7914634 18.0580864 -31.3698106 -0.4205848 0.9056093 -0.0545916
-9.0063667 -1.8991728 -20.8242722 -0.7398742 -0.6543644 -0.1561840
-2.1877866 -12.3917098 -36.3048011 -0.0026213 -0.0328876 -0.9994556
-1.9199355 -7.0342208 -36.5139610 -0.0207393 -0.0389562 -0.9990257
-17.1927427 16.9185583 -32.6721053 -0.4690315 -0.2209632 0.8550934
nan -nan -nan -nan -nan -nan
0.9582895 -22.1727999 -30.1145139 -0.2234337 -0.8942322 0.3878482
-16.2118415 14.6209363 -33.2538468 -0.6737789 -0.7069779 0.2149518
nan -nan -nan -nan -nan -nan
nan -nan -nan -nan -nan -nan
7.4996534 0.7573340 11.9821367 0.1470750 0.6893380 0.7093533
-3.5882871 -9.9193747 32.3495721 0.4572005 -0.8803111 0.1265704
3.2241627 17.4142433 -5.0367886 -0.6424488 0.6350027 0.4289885
2.4188105 -12.4616016 19.9182574 0.6556147 -0.5859350 0.4762873
-6.5480756 -12.8496423 -31.6607215 -0.6300424 -0.3288661 0.7034867
-13.9334806 6.9521145 -13.7917211 -0.9545414 -0.0622009 -0.2915163
-7.9884534 8.7739424 -36.9898069 -0.0053729 -0.0313102 -0.9994953
6.4486244 -10.6539895 -36.4791764 0.0017011 -0.0257742 -0.9996663
-2.2095645 15.7104715 -14.2181629 0.5002948 0.7892474 0.3560809
4.6272082 -10.0921653 9.7818369 0.5082888 -0.8509918 -0.1321187
-8.2005274 -13.8089494 -32.1854087 -0.9162141 -0.3549587 0.1858925
4.9693405 19.8186870 -26.1307208 -0.1903199 0.9433590 0.2717575
0.0782283 -21.9561465 -30.0325558 -0.1673105 -0.9759738 0.1395790
4.2084993 -11.9262991 -13.0219204 0.1378081 -0.5207194 0.8425320
-9.4270751 -1.7127077 -25.7001596 -0.8867412 -0.4519596 -0.0970701
-7.1508465 -8.3316345 -36.5082604 0.0429356 -0.0110792 -0.9990164
2.0127108 -1.6292084 -10.8649759 -0.5236445 0.0798703 0.8481846
-11.3561979 8.3125099 -7.6155280 -0.6111969 0.0182288 0.7912686
9.7705160 -7.3634586 -36.5246507 0.0185514 -0.0268303 -0.9994678
nan -nan -nan -nan -nan -nan
18.7976428 -11.0604998 -9.9142178 -0.8675526 -0.1351269 -0.4786368
nan -nan -nan -nan -nan -nan
20.7486137 25.7588127 -29.4032444 -0.0959676 0.8274244 0.5533165
-11.8062758 1.1482553 -17.7211511 -0.8222656 -0.5021067 0.2678958
2.8488943 1.7089704 -36.8118637 -0.0001246 -0.0274627 -0.9996228
-9.7812706 11.0114249 -30.9581102 -0.9134947 0.4022386 0.0610873
-10.7577620 20.2742442 -32.5552740 0.0072893 -0.0054816 0.9999584
18.5176496 13.7415845 -13.2706850 -0.2209708 0.9199543 0.3238148
0.0056475 14.5960798 -6.5995302 -0.7277679 0.6570617 -0.1965296
2.6997947 -11.1111238 11.3979879 0.1836013 -0.9108378 -0.3696823
-7.3950052 12.2199535 -8.5237122 -0.0393128 0.7043947 0.7087190
1.3754623 -14.6519767 -14.5820470 -0.3304573 -0.4792157 0.8131114
nan -nan -nan -nan -nan -nan
nan -nan -nan -nan -nan -nan
-10.1159964 13.5938692 -32.4213920 0.0167100 0.0473501 0.9987386
7.8247929 18.8638297 -4.8916837 0.3286714 0.5046485 0.7983139
0.5990468 11.2246699 -3.6949217 0.3375640 0.0475768 0.9400995
15.1522170 -10.9760834 -12.3963035 -0.1170791 -0.4516522 0.8844788
-11.0627873 3.1522514 -27.9444501 -0.9688616 0.0685631 -0.2379209
-6.4935480 1.1649946 -9.5556179 0.1942342 -0.9406449 0.2783169
7.5682776 -0.1824585 -36.7477436 0.0066440 -0.0283280 -0.9995766
-0.9573206 -9.1546588 6.5755230 -0.1441126 -0.9288280 0.3413357
-7.4601355 22.6565112 -37.3684775 0.0157500 -0.0077510 -0.9998459
-5.4952342 -10.3896523 34.0409044 -0.5729248 -0.7892251 0.2210901
-10.1216601 1.1777998 -10.2444229 -0.1079012 -0.9218450 0.3722354
-8.9978895 14.3780323 -22.4348411 -0.9198709 0.3432550 -0.1897722
-0.2957873 -1.9527869 -12.5177086 -0.6486237 -0.2072014 0.7323625
-7.0510249 -2.6137664 -15.9176780 -0.2221119 -0.6487525 0.7278643
8.7071558 4.7849456 -36.8826908 0.0037921 -0.0286339 -0.9995828
5.9819853 -3.9331174 -6.2945643 -0.9087462 -0.2753072 -0.3136659
13.5235051 -21.0712885 -19.4107369 0.1915827 -0.7321095 0.6536908
6.0186660 -2.9654840 15.9993567 0.9813424 0.0719085 0.1783152
-5.1129520 -4.9270196 18.9149044 0.2120013 -0.2645230 0.9407885
17.6367956 -11.5359657 -36.2134030 0.0274107 -0.0313398 -0.9991329
6.7560984 15.5874412 -37.1755958 0.0074709 -0.0240316 -0.9996833
-9.6566761 13.4943820 -17.6034166 -0.4773994 0.8147090 0.3291490
2.8423266 4.9056670 3.2378460 -0.2507528 0.9577212 0.1410427
-0.8555548 -1.5556890 -0.3512317 -0.8581925 -0.1340483 -0.4955166
0.0246433 -5.0722190 0.1739552 -0.6038727 -0.5060708 -0.6158166
-7.4335098 -6.0465078 -36.5438243 0.0408301 -0.0119169 -0.9990950
1.8163679 -14.2133213 -36.3044527 -0.0238840 -0.0423220 -0.9988185
-3.7910945 0.5885653 6.1715319 -0.8119619 0.4891453 -0.3185198
0.5703539 18.4454385 -23.8709364 -0.0663073 0.9398923 0.3349713
2.1127896 -11.3180627 11.9036434 -0.1139552 -0.9386463 -0.3255109
11.7600808 -11.0906848 -7.9231615 -0.3964719 -0.7920157 -0.4642427
19.3529391 -23.2906366 -31.0788403 0.1699526 -0.2852214 0.9432735
5.5204974 16.8101830 -37.2094322 0.0125036 -0.0142846 -0.9998198
4.2394450 -3.8223054 -9.8921534 -0.2887385 -0.2061845 0.9349428
-0.1237532 12.3668653 -7.7767405 -0.3250447 -0.1208470 -0.9379456
-2.8956116 -4.1639279 34.2442848 0.4970845 0.8672325 -0.0285437
16.7564340 13.0385694 -0.0745438 0.0157660 0.8556259 0.5173546
-15.1554529 11.0445495 -33.3573788 -0.8834605 -0.4523144 0.1221035
-14.0059374 13.4357201 -37.1347092 0.0134194 -0.0350074 -0.9992970
-5.9741716 -11.5694564 -36.4185796 0.0433818 -0.0117841 -0.9989891
-0.4576397 2.5769787 -2.6150521 -0.8893912 0.2932776 -0.3506729
-10.7246121 3.1335823 -30.8777922 -0.9989111 0.0436721 -0.0164151
-2.5891000 18.9057673 -28.8851516 -0.1270105 0.9918975 0.0027802
-6.5610409 -20.4818728 -33.7716962 -0.9791706 -0.1933644 0.0619284
-2.6103084 1.2883383 4.8402091 -0.6396876 0.6254254 -0.4468141
-1.9786866 -3.1782307 29.0483394 0.6249534 0.5420169 0.5618282
12.5322433 -0.7022140 11.3526772 0.8420571 -0.0704427 0.5347688
nan -nan -nan -nan -nan -nan
7.2337694 8.1744063 -9.2013263 -0.4419610 0.8839620 -0.1525833
nan -nan -nan -nan -nan -nan
0.3259430 -4.5395826 -12.6104986 -0.6608987 -0.1844303 0.7274602
9.9186802 -4.0522902 12.9877663 0.7011162 -0.6085100 0.3716876
nan -nan -nan -nan -nan -nan
-7.9346792 -4.4007047 -31.8171582 -0.8703545 -0.0802864 0.4858366
7.9754526 15.9898234 -19.3317837 -0.0854445 0.5946944 0.7993984
2.5067722 4.6948784 -6.7730753 -0.7151090 0.4619335 -0.5246300
-5.8841964 -6.7754767 28.3337850 -0.8166864 0.5474218 -0.1826274
10.7961922 -8.7182723 -11.4096252 -0.1310045 -0.8437648 0.5204794
-11.3809488 6.0110062 -7.5821154 -0.4262498 -0.1315459 0.8949898
-2.1052365 -0.6161026 1.9424627 -0.7984275 0.2541285 -0.5458316
8.3664741 -19.1383423 -17.7774101 -0.0979127 -0.5688029 0.8166250
10.6881097 20.2385933 -24.2051027 -0.1762270 0.8708569 0.4588599
11.9012361 -25.2219748 -34.1368052 -0.1278469 -0.9900973 0.0579867
-17.1805237 15.6091285 -37.0715445 -0.6714258 -0.2770350 -0.6873420
-5.6260845 2.1237011 -36.7928859 -0.0108044 -0.0321751 -0.9994238
-3.6750486 -10.7575905 16.4621271 0.3205580 -0.5470122 0.7733177
15.4239822 -22.4320103 -24.8353004 0.4362563 -0.8953401 0.0897020
12.9832954 16.6646561 -37.1531843 -0.0068825 0.0145350 -0.9998707
nan -nan -nan -nan -nan -nan
7.0032334 8.2533560 -8.2663723 -0.5209014 0.7965203 -0.3069480
12.4680282 0.8044960 -36.7348781 0.0108545 -0.0317961 -0.9994354
2.7173592 1.2471565 22.4201367 0.3649337 0.7073037 0.6054295
14.4091970 -13.7870357 -36.2377300 0.0288978 -0.0272159 -0.9992118
-12.6107807 10.4716999 -13.4975390 -0.7064843 0.7025482 0.0854750
14.7967027 1.8396119 9.3396637 0.3484748 0.2655852 0.8989048
4.8120353 -5.3882407 -36.6167432 0.0008871 -0.0262726 -0.9996544
4.7653988 8.3976761 -11.5189185 0.2468426 0.7315639 0.6355179
-9.3899087 18.4774043 -37.2867132 -0.0066554 -0.0294491 -0.9995441
6.3438255 7.7796386 -8.6830265 -0.4968062 0.8603688 -0.1137945
6.5317997 -4.7305213 -7.1408635 -0.9186874 -0.2123443 -0.3330515
-13.3796888 9.5486694 -32.3256311 -0.0110039 0.0156074 0.9998176
9.2175799 2.3414375 9.7058330 -0.0450226 0.7223269 0.6900846
-14.1977530 8.1615134 -36.9265416 -0.2064192 -0.0900812 -0.9743082
nan -nan -nan -nan -nan -nan
3.8517335 -18.6236145 -21.5598360 -0.3716761 -0.8381886 0.3991199
6.8311369 14.5768700 -7.3725693 0.4025351 -0.3313025 -0.8533488
20.0457020 -16.9545355 -35.9809664 0.0329600 -0.0328559 -0.9989165
14.6184829 8.3822063 -36.9523704 0.0086185 -0.0280424 -0.9995696
-12.4576871 4.8858270 -22.5567167 -0.9692997 0.0669505 -0.2365918
2.7254215 -27.0804689 -35.7154782 -0.0794122 -0.8561048 -0.5106646
-11.4253108 6.7357330 -32.2266911 0.0056627 0.0185166 0.9998125
18.9062164 19.1794260 -21.6771272 0.0131553 0.8533033 0.5212489
-4.0873380 0.9724563 14.9231496 -0.4099887 0.8777763 -0.2478267
0.3931490 -13.2516615 -14.2633381 -0.4165160 -0.3839820 0.8240584
4.9109110 16.5536332 -3.9193839 0.0128235 0.1401786 0.9900432
1.8352040 -1.6467665 -36.7191847 -0.0009109 -0.0274223 -0.9996235
nan -nan -nan -nan -nan -nan
-1.8016708 -4.6607263 34.4745534 0.8081335 0.2863494 0.5147080
-6.1027509 -21.7166994 -32.1873536 -0.9041201 -0.3556121 0.2368689
-18.0624908 -7.3348262 28.1189867 -0.7004739 -0.4803042 -0.5278676
2.4735254 -5.9930659 -1.4371867 -0.5971850 -0.4274517 -0.6787158
-6.1494993 -2.2212486 27.7011085 -0.9078207 0.3784145 -0.1807321
17.9199077 -4.6898862 4.0511406 0.2676127 -0.7074637 0.6541243
nan -nan -nan -nan -nan -nan
14.0049021 14.0555493 -6.3568016 -0.1745774 0.9798953 -0.0965808
-8.7458035 3.5450826 -7.5889036 -0.2004522 -0.7035701 0.6817682
12.0562568 -11.6231403 -7.1074543 -0.3621910 -0.8869668 -0.2865442
15.2204294 -18.3959138 -36.0977943 0.0311506 -0.0253075 -0.9991943
21.4815924 -8.6059069 0.1910246 0.0019452 -0.3426765 0.9394514
-2.6212527 1.8211435 -10.2866618 0.1045530 -0.6318311 0.7680222
5.4904628 -22.9814878 -26.8505143 -0.2908805 -0.7072620 0.6443360
0.1037084 -12.6645480 -36.3297773 -0.0226982 -0.0426059 -0.9988341
2.5763014 -12.9584157 -36.3709198 -0.0171411 -0.0392611 -0.9990820
nan -nan -nan -nan -nan -nan
5.7654161 20.0608331 -28.6270763 -0.2066524 0.9748267 -0.0837124
-14.1544141 -1.9672905 25.4018959 -0.4283421 0.9034734 -0.0160891
-2.7087209 23.9133784 -37.4219481 -0.0245760 -0.0023228 -0.9996953
nan -nan -nan -nan -nan -nan
-5.5447695 -2.6163924 -15.2572661 -0.2253450 -0.6654471 0.7116178
-0.2779575 3.4007596 -0.7587458 -0.6876795 0.6828988 0.2464673
nan -nan -nan -nan -nan -nan
-11.8813529 10.9267047 -17.2893168 -0.8458918 0.4083895 -0.3430526
-5.7727676 19.4664098 -32.5777833 0.0172459 -0.0381359 0.9991237
-15.9658915 13.4310466 -37.0471155 -0.6664538 -0.2274236 -0.7100125
15.9055302 -13.6660767 -15.3613337 0.6462804 -0.7167273 -0.2619611
-4.7901848 -9.8390562 -20.2979075 -0.8421883 -0.3618069 0.3997682
-0.2829938 13.0499558 -4.2959602 -0.3068738 0.4472129 0.8401363
-1.7603516 -26.5651956 -36.1260262 0.0384513 -0.0273867 -0.9988851
-12.3864598 10.1423038 -16.8928328 -0.8758281 0.3200675 -0.3612228
11.8028062 11.6834132 -14.2027866 -0.3427694 0.8091628 0.4772470
-2.4256012 18.6128136 -26.2080183 -0.1857868 0.9676328 0.1707922
7.0442158 -9.7449309 5.3002673 0.3351776 -0.9334260 -0.1279528
6.4589591 10.3406616 -3.4514383 -0.4931429 0.6817204 0.5404327
15.6431771 14.8418131 -16.3983326 -0.2118446 0.7106442 0.6708999
0.3904943 1.4377527 19.7605461 -0.1308333 0.9409647 0.3121986
-15.4916862 11.8103585 -36.9477428 -0.6854436 -0.3329203 -0.6475579
-12.4365586 5.3188543 -32.1726985 -0.0514832 0.0152864 0.9985569
6.9744152 -2.2299100 14.5029756 0.3336038 0.5275314 0.7812933
-12.2453582 2.4382407 -32.2173127 -0.3044846 -0.2128644 0.9284276
-6.8001749 -10.8005965 16.2215361 -0.4845617 -0.8530453 -0.1936845
9.5017261 1.7690878 -36.7903772 0.0070159 -0.0297744 -0.9995320
-12.6049656 -3.6471300 27.2519981 0.2904867 -0.2658605 0.9192038
-13.0586137 5.7745118 -19.7923558 -0.9501791 0.2357471 -0.2039191
13.7631379 -9.7001209 -11.8887497 -0.1979383 -0.5583199 0.8056670
18.8400769 -18.9588088 -20.5436927 0.3173484 -0.2966643 0.9007110
3.1895976 -20.2089329 -36.0818749 -0.0180758 -0.0406875 -0.9990084
-13.5952531 5.3988354 -14.6302461 -0.9791387 -0.1386549 -0.1485336
-9.3489437 14.5660668 -20.5380908 -0.8269725 0.5533235 -0.0997474
2.4159241 8.7302123 -37.0058817 -0.0001128 -0.0275458 -0.9996205
nan -nan -nan -nan -nan -nan
-10.6365260 -0.8905802 21.2989785 -0.5197211 0.8519528 -0.0637680
16.4317203 -10.0312776 -10.9533171 -0.0070177 -0.9659149 0.2587645
nan -nan -nan -nan -nan -nan
1.0858478 -7.3436564 24.7000510 0.7425603 -0.3697337 0.5584811
8.0376625 -10.7219057 -12.7382188 0.1236048 -0.5550683 0.8225698
-4.7886266 23.9452554 -37.3523397 -0.0238181 0.0112067 -0.9996535
nan -nan -nan -nan -nan -nan
-5.5941351 -23.6509998 -32.3563590 -0.9773553 -0.1659008 0.1313531
nan -nan -nan -nan -nan -nan
3.2385318 -6.5058450 -1.7313761 -0.5744025 -0.5608832 -0.5962145
-5.4806715 24.8283925 -37.3327652 0.0106539 0.0253734 -0.9996213
11.6986995 -6.6091841 6.2691253 0.5634592 -0.7611302 0.3212391
13.9130057 14.0499201 -3.2189055 -0.2205880 0.9729241 0.0689897
2.1876848 16.0979359 -7.8107501 -0.4357512 0.5131966 -0.7394255
18.8453633 16.5521793 -17.9555130 0.0003555 0.7799839 0.6257995
9.9315887 -21.7954888 -22.0288455 -0.5026552 -0.8465331 0.1752697
-13.4247129 2.8577984 -19.4665186 -0.9721970 -0.1649582 -0.1661980
12.9893810 10.0337249 2.4565698 -0.3677013 0.6692676 0.6456598
nan -nan -nan -nan -nan -nan
nan -nan -nan -nan -nan -nan
-13.2742048 5.3703639 -18.1030372 -0.9791575 0.2027366 0.0121851
3.2205357 3.7279947 6.4639317 -0.0270040 0.9754324 0.2186379
nan -nan -nan -nan -nan -nan
-8.4151879 24.4059036 -37.3977220 0.0218601 -0.0055220 -0.9997458
13.9190946 1.6081606 -36.7439292 0.0124188 -0.0326811 -0.9993887
-7.0727134 -5.9365808 13.7396414 -0.9954747 0.0458270 -0.0832472
-7.1228154 26.2622193 -32.6078719 -0.0020003 0.0159929 0.9998701
nan -nan -nan -nan -nan -nan
-5.4140822 2.0456181 17.8405572 -0.3712149 0.9191583 -0.1317098
-8.7740345 3.8128373 -6.1195749 -0.4310239 -0.8955303 0.1106525
8.6231007 -11.3227492 -13.2266952 0.1128002 -0.5459501 0.8301895
-6.5338437 -0.5374055 21.2821828 0.1888039 0.7010996 0.6876136
-13.1990361 4.8043905 -20.0727638 -0.9600078 0.1643978 -0.2266239
-4.6427541 15.7138641 -14.0847013 -0.3055005 0.9165712 0.2580050
-5.6732598 -23.6648307 -35.3104491 -0.9427157 -0.3294903 -0.0521847
-3.3929647 -1.6638782 29.5042643 0.8380418 0.1759971 0.5164406
6.5915819 4.2265038 -36.8741743 0.0031033 -0.0273698 -0.9996206
-8.5112588 7.9039859 -5.0815253 -0.1350678 0.7460510 0.6520465
11.4201976 12.2102453 -15.3045236 -0.2908033 0.7890398 0.5411559
1.3830743 -23.8341169 -31.3643723 -0.0434876 0.0042807 0.9990448
-2.3461716 7.0401508 -4.4897187 0.1618314 -0.5739499 0.8027404
-7.2516547 -7.2511168 20.2285502 0.6627335 0.2098753 0.7188440
-13.3050733 -8.4368419 26.4892070 0.3287091 -0.5903099 0.7372141
7.9341208 -8.9753129 -5.5623284 -0.6053264 -0.7850963 -0.1311628
-9.3342470 6.7049516 -36.9176471 -0.0018180 -0.0325417 -0.9994687
-5.1476966 -10.7053269 -21.8086251 -0.8447045 -0.3583734 0.3975460
-2.3947221 11.8699087 -4.8765788 -0.7821702 0.5435320 0.3046026
3.5026714 0.7740221 22.0706533 0.7888739 0.3415324 0.5109144
21.7599451 -14.6546532 -6.3710637 -0.3526773 -0.8007735 0.4841287
-8.8020101 -12.1809497 -33.1680265 -0.9398581 -0.2750840 0.2024738
-7.6835622 -10.0948985 16.1390799 -0.6297076 -0.6299430 -0.4545769
nan -nan -nan -nan -nan -nan
-9.1691538 -11.3873776 -33.5270459 -0.9214487 -0.3595028 0.1472752
7.1699379 -21.0390923 -23.7955419 -0.2531171 -0.8255028 0.5044570
14.6011249 -1.3084290 9.1576532 0.5842300 -0.3646824 0.7250393
-3.9501608 -28.3377421 -34.6619286 -0.4062108 -0.8951695 -0.1834786
0.0650475 -8.8250075 3.8170797 -0.4297480 -0.6426856 -0.6342490
3.6138850 2.1934381 10.0022968 -0.1553010 0.8761794 0.4562798
5.6986562 17.4651569 -4.1159151 0.0179181 0.2389875 0.9708573
-8.2872596 26.7012142 -37.3903200 0.0308622 -0.0129826 -0.9994393
5.3804852 -5.9238991 -4.8925007 -0.7830699 -0.2670981 -0.5616584
8.1100487 -21.9565885 -36.1212028 -0.0224124 -0.0380735 -0.9990236
-0.5346187 1.6944956 -3.0988934 -0.9034039 0.3178107 -0.2878502
4.6734690 -5.9804590 20.0374470 0.8942609 0.1633603 0.4166664
9.6144859 -10.5825128 -36.4447779 0.0203289 -0.0251979 -0.9994758
15.3863692 11.7482970 1.5130025 -0.1279749 0.7488395 0.6502783
-2.6858776 1.3449125 13.5560099 -0.2005487 0.9795300 0.0173530
14.6243884 14.0352556 -7.0968028 -0.1403981 0.9644380 -0.2239368
-2.5528905 -13.4776066 -19.7003230 -0.7978337 -0.4865883 0.3559400
-1.4439161 -27.4348034 -32.4900523 0.4095198 -0.8233370 0.3929501
16.0995687 -19.3043141 -36.0461314 0.0332572 -0.0260451 -0.9991074
15.0375584 19.1242006 -36.9366204 -0.0361980 0.2142498 -0.9761079
nan -nan -nan -nan -nan -nan
-14.2772624 7.4838091 -35.3682890 -0.9835330 -0.1679402 -0.0667749
6.6697225 8.5737934 -7.5150844 -0.4312654 0.5781494 -0.6926424
-14.7790996 -7.0144301 28.4051406 -0.2915686 0.0971524 0.9516035
-1.5492792 -7.6708113 29.6619034 0.8435879 -0.4378183 0.3109253
13.4267309 -23.8578566 -31.0442642 0.3196929 -0.9202086 -0.2258598
-14.5414411 11.8480041 -37.0944147 0.0362668 -0.0265444 -0.9989895
1.7322063 1.8257476 14.3245905 0.4218506 0.8878371 0.1838136
5.7070791 -9.9099712 4.0188447 0.2547077 -0.9230567 -0.2882540
7.0655896 2.1456491 10.0206218 0.0479179 0.8435924 0.5348418
-12.5760423 24.5509640 -36.1838518 -0.6094080 0.7897377 -0.0702581
8.6552603 -9.6695519 -3.1882799 -0.5461403 -0.8118215 0.2065832
-9.6798292 -0.2644155 -28.7989453 -0.8667318 -0.4847740 -0.1173461
22.1577196 -11.9899875 -2.0876831 0.0764647 -0.7705842 0.6327347
-5.1702011 9.6685115 -7.3343875 0.2869759 0.4858203 0.8256049
-8.4399287 -7.2722932 21.4331562 0.7608365 0.2494302 0.5990930
12.8104696 1.8772664 -36.7654319 0.0106565 -0.0319777 -0.9994318
nan -nan -nan -nan -nan -nan
3.6899878 -1.4667250 21.1085678 0.8270222 -0.1682635 0.5363969
-0.0781242 18.2226061 -23.3336723 -0.0551217 0.9527508 0.2987096
-5.3640112 17.7033350 -23.5093805 -0.2520644 0.9605706 0.1173359
0.8285366 -19.2795593 -36.0982710 0.0092695 -0.0208327 -0.9997400
-6.6909926 0.7462980 -36.7337873 -0.0113313 -0.0356336 -0.9993007
12.4910872 17.7372533 -19.7200019 -0.1567183 0.7373531 0.6570767
-1.1996965 10.9899852 -7.3336095 -0.1532157 0.1516903 -0.9764809
-3.1356104 -1.1613215 21.7642806 -0.8338653 -0.1214993 -0.5384298
-9.9541269 -8.0698205 -34.2621508 -0.9563999 -0.2879852 -0.0486190
nan -nan -nan -nan -nan -nan
0.8435496 -21.9392873 -31.2073359 -0.2437807 -0.8709703 0.4265930
nan -nan -nan -nan -nan -nan
15.8688515 -17.7119973 -14.1531442 0.8326780 -0.5533971 -0.0199758
nan -nan -nan -nan -nan -nan
1.7019435 15.3039434 -16.8347353 0.3086416 0.7234081 0.6175930
nan -nan -nan -nan -nan -nan
-4.2226297 18.5531492 -30.3237871 -0.3400923 0.9219506 0.1853222
19.9079868 -11.4091160 -18.7661208 0.4297898 -0.8913629 0.1440587
18.2292183 -6.4636952 1.6253634 0.1533932 -0.7028999 0.6945519
-13.4444270 -5.0426647 22.5311638 -0.5658466 0.0686625 -0.8216466
-13.4040714 -9.7181115 23.8480946 -0.3416364 -0.9347047 -0.0980397
0.2078306 -18.2757372 -22.9776309 -0.1889137 -0.8300229 0.5247605
7.6140442 -25.8449072 -34.0290365 0.6033422 -0.7885737 -0.1188689
nan -nan -nan -nan -nan -nan
-11.7197688 -5.4092533 24.6151002 0.6155234 -0.1608462 0.7715306
1.4966955 -10.0259745 -36.4638738 -0.0147534 -0.0351639 -0.9992727
9.4360303 -24.2840132 -36.0731069 -0.0434453 0.0001770 -0.9990558
2.3751506 28.5120203 -36.8771642 0.1915480 0.0645425 -0.9793588
-2.4721565 5.2500706 -5.9091580 0.6873797 -0.5782023 0.4395352
12.3905910 20.2695881 -23.7159650 -0.1257903 0.8454359 0.5190520
-2.3744871 -17.2134589 -23.9140116 -0.7855173 -0.4564013 0.4179240
13.0370653 12.8789456 -15.3877705 -0.3228069 0.7905571 0.5203990
-4.3600897 -27.9633056 -33.9003972 -0.8443598 -0.5312865 -0.0692180
nan -nan -nan -nan -nan -nan
11.4810704 0.4690878 11.6508102 0.2871364 0.6320400 0.7197765
-5.8010235 10.0612180 -37.0338189 -0.0011226 -0.0279529 -0.9996086
nan -nan -nan -nan -nan -nan
nan -nan -nan -nan -nan -nan
-10.4538403 7.3949047 -30.7401549 -0.9986656 0.0510185 -0.0080071
17.2838543 -10.0033281 -10.4545684 -0.0649663 -0.9943559 -0.0838796
-9.4469826 21.5028323 -32.5714717 0.0061720 0.0108596 0.9999220
-0.3777458 9.7028977 -3.5040226 0.1859973 -0.2258047 0.9562517
10.4391793 2.1848574 9.9686472 -0.0803302 0.6893756 0.7199363
-2.6238696 -10.5732498 -36.3646702 -0.0076380 -0.0350083 -0.9993578
8.1015570 16.7440601 -19.9017155 -0.1236468 0.6342228 0.7631991
nan -nan -nan -nan -nan -nan
7.1910494 19.6765491 -37.1138901 0.0629267 0.0501965 -0.9967550
-9.3150769 -0.2441763 -13.3124756 -0.2988149 -0.8973234 0.3248390
8.2716087 -20.7732091 -22.1013807 -0.4713015 -0.8450385 0.2525567
5.1938653 -9.5894866 15.9839490 0.9237960 -0.3212591 0.2083111
-7.6864753 15.6781829 -30.4621460 -0.8408451 0.5412711 -0.0022663
22.7034957 25.1718803 -28.4587297 -0.0663303 0.7096451 0.7014301
-7.9619221 -9.2783903 -31.6893449 -0.8928293 -0.2816014 0.3515061
nan -nan -nan -nan -nan -nan
nan -nan -nan -nan -nan -nan
9.4737220 22.0124259 -31.8093253 -0.3203368 0.8219430 0.4709501
nan -nan -nan -nan -nan -nan
nan -nan -nan -nan -nan -nan
-9.8624574 -0.5442334 20.7978876 -0.4111991 0.9063338 -0.0973358
6.9171592 -20.7726519 -36.1384439 -0.0226888 -0.0383932 -0.9990051
nan -nan -nan -nan -nan -nan
nan -nan -nan -nan -nan -nan
8.7834771 -21.2915091 -22.8384994 -0.4818312 -0.8400781 0.2492139
-10.6784300 3.7116677 -29.9129123 -0.9976821 0.0125493 -0.0668808
nan -nan -nan -nan -nan -nan
-15.4218475 11.2523604 -34.9357058 -0.9548975 -0.2850684 0.0831074
-18.4252427 18.0064876 -34.3272729 -0.9235997 -0.3468275 0.1633227
12.8196336 -24.1667862 -31.8367068 0.2114896 -0.9437535 0.2541682
0.1174608 17.2228100 -20.1631078 0.0539682 0.9477826 0.3143175
16.4078754 16.5149070 -17.9484426 -0.0284344 0.7240531 0.6891579
11.0175180 -7.9012061 2.0424060 0.2271453 -0.9502131 0.2133075
4.8863945 -2.7995896 -36.6868064 0.0015302 -0.0275735 -0.9996186
-6.4714283 -5.9273626 -18.0253629 -0.6549149 -0.6497167 0.3859465
-6.5995418 17.2929718 -26.2818871 -0.5142625 0.8535717 0.0833634
13.9848565 21.0209262 -36.2192985 0.0001306 0.4534361 -0.8912888
3.1996939 -2.0852458 -5.4158703 -0.3603186 -0.8824003 -0.3025562
9.0023696 -25.3504565 -32.7660369 0.1391342 -0.8377091 0.5280958
9.4148237 -4.3386870 -36.6127530 0.0121732 -0.0281059 -0.9995308
nan -nan -nan -nan -nan -nan
nan -nan -nan -nan -nan -nan
3.6674343 0.1118042 -36.7679724 0.0003589 -0.0274114 -0.9996242
-9.1764434 3.9830923 -6.7547784 -0.8114057 -0.5606565 0.1651820
14.4450036 -12.0293149 -3.5703185 -0.1036678 -0.9299099 0.3528746
12.1933278 2.4565045 9.7436622 0.1016846 0.6265532 0.7727169
-8.6782725 -8.9373388 -36.5628861 0.0486091 -0.0214769 -0.9985870
15.7935456 14.2852787 -37.0856289 0.0025696 -0.0481132 -0.9988386
-1.7358576 -5.4768300 32.5298661 0.9578953 -0.1919710 -0.2135034
-1.6358824 13.3533481 -10.8189522 0.4191497 0.6301255 0.6536478
-0.9112612 -16.9493831 -21.3218013 -0.4243934 -0.7793907 0.4609125
-1.2690565 -25.1985718 -31.5575042 -0.2134833 0.0719364 0.9742946
7.2855141 -6.8819513 -7.7769323 -0.8981923 -0.3356890 -0.2838370
-9.0918204 -8.1763518 17.2690459 -0.8465776 -0.0395260 -0.5307957
5.1232498 1.5604012 11.7014514 0.2131425 0.9044016 0.3696324
-2.3045077 -4.4906685 36.6034454 0.8594462 0.4499872 0.2426186
-5.3385417 -9.1301314 19.1974572 0.8731443 0.1086746 0.4751936
-0.9692861 13.7645340 -6.1694389 -0.6591422 0.7325796 -0.1698788
-11.2110064 19.0267806 -37.2898601 -0.0062299 -0.0284504 -0.9995758
0.7272010 3.3028394 -9.7725623 0.1295593 -0.3607216 0.9236310
-4.7718386 -5.3623594 4.5497283 -0.6974228 -0.3358201 -0.6331085
5.2911913 8.6440531 -37.0011463 0.0015475 -0.0285152 -0.9995922
nan -nan -nan -nan -nan -nan
-6.6711971 17.6338923 -37.2760380 -0.0024986 -0.0265980 -0.9996431
-1.5614785 -14.2867172 -36.2446938 0.0030833 -0.0298857 -0.9995486
nan -nan -nan -nan -nan -nan
nan -nan -nan -nan -nan -nan
11.9112331 -6.9732261 -36.4944093 0.0199296 -0.0315821 -0.9993024
-8.0348682 2.3700566 -36.7791592 -0.0046215 -0.0335842 -0.9994252
-6.2623368 -16.7800854 -31.6543486 0.0188558 0.0032669 0.9998169
2.8896194 -19.4105328 -23.2843637 -0.3065983 -0.7521022 0.5833865
nan -nan -nan -nan -nan -nan
-1.9038496 -12.6647360 -17.1513203 -0.8279373 -0.4385800 0.3495245
-5.0297950 -6.4410384 25.9749767 -0.8303601 0.3173543 -0.4580265
1.9253089 12.1538847 -13.2181459 0.5714547 0.5764647 0.5840616
6.2736978 -4.3834796 -36.6396893 0.0043772 -0.0263876 -0.9996422
-5.0716285 5.6807948 -5.0208847 -0.2009925 -0.2257106 0.9532349
-2.1082662 10.3602002 -7.5205575 -0.2127814 0.7385368 -0.6397558
-6.3195039 20.4029585 -32.5546030 0.0069652 0.0020065 0.9999737
-0.5295743 -2.7956690 -12.9579770 -0.6423021 -0.1931014 0.7417277
11.8791438 -14.0695866 -36.3018049 0.0283830 -0.0253184 -0.9992764
6.5431069 -1.9036337 -36.7059579 0.0053517 -0.0277448 -0.9996007
7.1855804 18.6920090 -37.1551572 0.0429157 0.0327571 -0.9985415
0.1567566 -0.5695181 -4.3601756 -0.6959953 -0.5084239 -0.5070461
1.8432376 16.4567493 -6.0574721 -0.6682803 0.7283832 0.1511930
-5.2013841 13.5487673 -9.8363523 0.0378766 0.6773842 0.7346537
-6.7744749 -7.3273669 32.0397668 -0.8440417 0.5026845 -0.1868202
-6.3799987 -16.5379465 -36.3843746 0.0493031 -0.0013040 -0.9987830
16.5591554 14.2421517 -5.5253699 0.0116160 0.9998828 -0.0099715
-12.2454198 -4.0048682 21.4068064 -0.6825429 -0.2143787 -0.6986966
