-5.2881572 23.2217764 13.5501940 -0.2343205 0.7488362 0.6199502
-8.0183481 23.5433831 12.1197357 -0.2147336 0.7626338 0.6101468
-10.7717693 23.8477159 10.8146758 -0.1161151 0.6998396 0.7047991
-13.1131761 23.9797525 10.5763497 0.0007074 0.5882895 0.8086501
-15.4122961 24.0868408 10.4974516 -0.0198593 0.5049752 0.8629054
-17.8310731 24.2258871 10.2330544 -0.2042388 0.4038820 0.8917207
-20.8976338 24.5645483 8.7815166 -0.6055564 0.3155884 0.7305514
25.8365359 22.6483343 -5.9642867 0.5307077 0.7182409 0.4499770
23.9106286 22.5179357 -4.4159145 0.5073511 0.5371584 0.6738365
18.7659148 20.3078490 14.0587251 0.7920515 0.5339242 0.2959381
17.1525786 20.1959362 15.3764209 0.3360683 0.6101440 0.7174834
15.2993449 20.2512667 15.4738523 0.0041233 0.5874448 0.8092537
13.3494145 20.3549327 15.2263408 -0.0742781 0.5941782 0.8008964
11.3953750 20.4465489 15.0727923 -0.0007245 0.5961578 0.8028669
9.4705894 20.5110224 15.1200218 0.0736651 0.6135070 0.7862459
7.6306694 20.5258652 15.5255110 0.2553248 0.6676200 0.6993517
5.9811312 20.4504444 16.5723888 0.4062520 0.6814741 0.6087301
4.5103157 20.3037969 18.1173334 0.5438468 0.6927829 0.4735847
3.2681110 20.0756337 20.2254931 0.6380725 0.6447991 0.4208297
2.2249863 19.7891237 22.7267732 0.6878988 0.6105975 0.3923849
1.1645955 19.5341323 24.9901879 0.6630614 0.6373857 0.3925418
0.0241300 19.3294342 26.8888869 0.3855371 0.7837888 0.4868636
-1.4352116 19.2519429 27.8979769 0.0821835 0.8514425 0.5179687
-9.4351322 21.3657744 13.8781936 -0.2728160 0.6471990 0.7118320
-12.1466756 21.6181920 12.7002240 -0.1503739 0.6160523 0.7732188
-14.6687428 21.7928390 12.0676819 -0.1369665 0.5356367 0.8332668
-17.1852990 21.9529044 11.5458850 -0.1914513 0.4747557 0.8590422
-20.1497184 22.2306535 10.2442636 -0.5865203 0.3166088 0.7454883
27.9873112 20.4113491 -5.5403222 0.6410156 0.5962357 0.4833239
26.0747597 20.2813610 -3.8701369 0.4251345 0.5713657 0.7019985
24.1083423 20.2374072 -2.9382560 0.3693847 0.5222787 0.7686221
19.0910885 18.2635616 15.7398570 0.7291838 0.4991339 0.4681414
17.4612313 18.1897009 16.8399658 0.3103354 0.5823236 0.7513928
15.6689849 18.2160592 17.1077649 0.0312922 0.6020145 0.7978717
13.7566578 18.2999782 16.9049842 -0.0402102 0.6378131 0.7691408
11.8299030 18.3791107 16.7481276 0.0162738 0.6611028 0.7501188
9.9518370 18.4255993 16.8635451 0.1483598 0.6786265 0.7193437
8.1931773 18.4147225 17.4480187 0.3192165 0.6950590 0.6442001
6.5658262 18.3509919 18.4587352 0.4772666 0.6714004 0.5669551
5.1021823 18.2301247 19.9241794 0.6153255 0.6167120 0.4909591
3.8718319 18.0350959 21.9740603 0.7090287 0.5757100 0.4072301
2.8640012 17.7801007 24.4870852 0.7494822 0.5623533 0.3493354
1.9470827 17.5170471 27.0453756 0.7099051 0.6158182 0.3417641
0.9155368 17.3125097 29.1232047 0.5182168 0.6780555 0.5212409
-0.4372268 17.2224160 30.2883612 0.1723678 0.6733468 0.7189530
-2.2075771 17.2614727 30.4388849 -0.1268619 0.6572693 0.7429018
-11.1634907 19.3252495 14.8605450 -0.3108401 0.5618376 0.7666270
-13.8724381 19.5383126 13.7486308 -0.2110866 0.5415419 0.8137413
-16.4705068 19.7066164 12.9977701 -0.2391167 0.4886587 0.8390685
-19.2599098 19.9112732 11.9818411 -0.4323685 0.4255259 0.7949750
28.1775348 18.1117203 -3.6244220 0.6146269 0.5114498 0.6005438
26.2498913 18.0416655 -2.3883862 0.3789810 0.5275861 0.7602805
24.2862705 18.0190831 -1.6242069 0.3585294 0.5240422 0.7725519
19.3453123 16.3124958 17.0373232 0.6091959 0.4772484 0.6333359
17.7381399 16.2462744 18.1471415 0.3048433 0.5221472 0.7965129
15.9880575 16.2573990 18.5111413 0.1183672 0.5386645 0.8341641
14.1476941 16.3063237 18.5162171 0.0484109 0.5734476 0.8178106
12.2926957 16.3541057 18.5368742 0.0539246 0.6322916 0.7728515
10.4795547 16.3787884 18.7804945 0.1534039 0.6648221 0.7310806
8.7500491 16.3689044 19.3520421 0.3161408 0.6785563 0.6630358
7.1295708 16.3212197 20.2774109 0.4764699 0.6572431 0.5839589
5.7064435 16.2123272 21.7700252 0.5786739 0.6408521 0.5044255
4.4690343 16.0549366 23.7040995 0.6908944 0.6100270 0.3879845
3.5269911 15.8229729 26.3143175 0.7562131 0.5746129 0.3129885
2.6203395 15.6010706 28.8128075 0.7258279 0.5623362 0.3961715
1.4749938 15.4631938 30.5238078 0.5607445 0.5081032 0.6537559
0.0288421 15.4153068 31.4037273 0.1797247 0.3798589 0.9074173
-1.7141202 15.4456976 31.5703096 -0.1666033 0.3403675 0.9254152
-3.9480770 15.5925794 30.6887519 -0.5799840 0.3047927 0.7554601
-13.0374824 17.3326421 15.5106360 -0.2590727 0.5536926 0.7913949
-15.6952745 17.4965944 14.5713675 -0.2350802 0.5255890 0.8176145
-18.3697458 17.6523555 13.7197530 -0.3039489 0.5125411 0.8030670
28.3439091 15.8942556 -1.9784347 0.5940708 0.5111775 0.6211099
26.4248240 15.8472378 -0.9033778 0.3926064 0.5812346 0.7127599
19.5656324 14.4182016 18.1520364 0.5786821 0.4275065 0.6945252
17.9363114 14.3784134 19.0631965 0.3326809 0.4429879 0.8325174
16.2143518 14.3808450 19.4895170 0.1562100 0.4599339 0.8741048
14.4492071 14.3981682 19.7476069 0.0980878 0.5343395 0.8395595
12.6695384 14.4174261 19.9861991 0.1408606 0.5917564 0.7937144
10.9363117 14.4181847 20.4356852 0.2255139 0.6189869 0.7523289
9.2471202 14.4043845 21.0491600 0.3705114 0.6581560 0.6554022
7.7224301 14.3430744 22.1922807 0.4713089 0.6777486 0.5643800
6.3364065 14.2488314 23.6960218 0.5854036 0.6683462 0.4589291
5.1552129 14.1090532 25.6949139 0.6864567 0.6288384 0.3651568
4.1303267 13.9424181 27.9764550 0.7408349 0.5534682 0.3805741
3.1002842 13.7914266 30.0706313 0.7037596 0.4908183 0.5136340
1.8057366 13.7137807 31.3499344 0.3638292 0.3785960 0.8510543
0.2609328 13.6972428 31.9582311 0.1063565 0.2108691 0.9717111
-1.5535498 13.7386332 31.9390216 -0.1965547 0.1361003 0.9710010
-3.7974839 13.8638303 31.0223795 -0.4726356 -0.0031050 0.8812525
-11.9879689 15.1458118 17.7234483 -0.3501194 0.6376705 0.6861434
-14.7788221 15.3142699 16.4296145 -0.2442578 0.6027990 0.7595864
-17.4237418 15.4439033 15.5655580 -0.2617360 0.5824523 0.7695736
-20.5867480 15.6557871 13.8462986 -0.6243115 0.4116887 0.6638881
28.5073787 13.7293126 -0.3591945 0.5136219 0.5778459 0.6342608
26.6378880 13.6722615 0.9628932 0.3635205 0.6641858 0.6532304
21.2546006 12.6577193 17.4229679 0.8049559 0.3629129 0.4694042
19.7380045 12.5770652 19.0069977 0.5496422 0.3873851 0.7401528
18.1075094 12.5484291 19.8457508 0.3592774 0.3906650 0.8475262
16.4059658 12.5462063 20.3094179 0.2181150 0.4419889 0.8700986
14.6917155 12.5471843 20.7286663 0.2404492 0.4986393 0.8327923
12.9915952 12.5431236 21.2193227 0.2628123 0.5729554 0.7763065
11.3340197 12.5273838 21.8730151 0.3596693 0.6243739 0.6933940
9.7599467 12.4917194 22.8020813 0.4203965 0.6476678 0.6354472
8.2880341 12.4349870 24.0188164 0.5004461 0.6629545 0.5568169
6.9763119 12.3474449 25.6535045 0.6086594 0.6314302 0.4804474
5.8005160 12.2388717 27.5667671 0.6805648 0.5967868 0.4250612
4.6771780 12.1292583 29.4822359 0.6611216 0.5091201 0.5511035
3.4314436 12.0527400 30.9361760 0.5668061 0.3858429 0.7279122
1.9756761 12.0213213 31.7721227 0.3065434 0.1029624 0.9462716
0.2944873 12.0321238 32.0368039 0.0495447 -0.0914912 0.9945726
-1.6617908 12.0885707 31.6918460 -0.3143607 -0.1584011 0.9359949
-4.1116609 12.2212895 30.3367631 -0.6249695 -0.3051864 0.7185224
-10.5029167 12.9673655 20.8514708 -0.4852720 0.6178534 0.6186826
-13.5413675 13.1478100 18.9351076 -0.2890522 0.6973604 0.6558485
-16.2609931 13.2682436 17.8311098 -0.2577812 0.7068473 0.6587228
-19.2314448 13.4157522 16.3876716 -0.5113425 0.5546241 0.6564457
28.7313734 11.5766344 1.9768488 0.5409967 0.6871539 0.4849145
26.9295703 11.5141638 3.6125603 0.4131037 0.7560546 0.5076680
25.1362662 11.4625030 5.0363294 0.4525788 0.7784624 0.4349352
21.4134074 10.8257359 18.2765197 0.7574016 0.3371304 0.5591833
19.8882722 10.7686596 19.7426041 0.5008200 0.3724694 0.7813103
18.2638586 10.7464329 20.5551044 0.3741444 0.4084048 0.8325993
16.5992001 10.7365312 21.1376583 0.3049731 0.4558694 0.8361665
14.9457157 10.7244644 21.7596456 0.3183326 0.4973098 0.8070609
13.3199766 10.7070729 22.4785452 0.3388713 0.5805861 0.7403283
11.7516217 10.6793247 23.3851435 0.4061901 0.6271434 0.6646057
10.2552269 10.6402452 24.4949517 0.4726058 0.6645793 0.5787729
8.8474979 10.5886983 25.8261188 0.5288016 0.6638396 0.5288533
7.5101280 10.5297909 27.2837500 0.6019301 0.6374890 0.4809240
6.3218876 10.4518241 29.0765966 0.6324434 0.5867496 0.5057078
5.0706819 10.3904065 30.5627814 0.5621122 0.4525506 0.6922628
3.6378915 10.3608432 31.4728527 0.3770279 0.2155442 0.9007723
1.9931916 10.3632657 31.8113650 0.0963545 -0.0651295 0.9932140
0.1148055 10.3966055 31.6041758 -0.0771789 -0.1810198 0.9804464
-2.1046130 10.4710745 30.6781129 -0.4754738 -0.4269312 0.7691908
-5.3576594 10.6684201 27.6078204 -0.7838184 -0.3041012 0.5414344
-9.4866581 10.9558204 22.9938106 -0.4703167 0.4272181 0.7721961
-12.1898855 11.0565980 21.6701934 -0.1860084 0.6631325 0.7250215
-14.5504430 11.1114663 21.1579062 -0.1117538 0.8363699 0.5366530
-17.0452478 11.1766117 20.4774872 -0.2329922 0.8776510 0.4188596
28.9964977 9.4791500 4.8067455 0.6025747 0.6358597 0.4822718
27.2496571 9.4291622 6.5530116 0.5276011 0.6542537 0.5418388
25.5436766 9.3778174 8.3290798 0.5931768 0.6368100 0.4925589
21.5669682 9.0210332 19.1000085 0.7606691 0.4138886 0.5000787
20.0444104 8.9814228 20.5113357 0.4978337 0.4599368 0.7352685
18.4435331 8.9617053 21.3819401 0.3757017 0.4632589 0.8026453
16.8201150 8.9478076 22.0942776 0.3523981 0.4936720 0.7950494
15.2108715 8.9326442 22.8391868 0.3661465 0.5520981 0.7490824
13.6531042 8.9109087 23.7576329 0.4056845 0.5916964 0.6966459
12.1543733 8.8827767 24.8431986 0.4633706 0.6235307 0.6296802
10.7377351 8.8463511 26.1443406 0.5076479 0.6560968 0.5584180
9.3585213 8.8085825 27.4755800 0.5468047 0.6586760 0.5168661
8.0911207 8.7609453 29.0605206 0.5770241 0.6414643 0.5055362
6.7872520 8.7215227 30.4229962 0.5129453 0.5706746 0.6412625
5.3430743 8.7001942 31.3074134 0.3760859 0.4045382 0.8336115
3.7146435 8.6989302 31.6674278 0.0929272 0.1251307 0.9877787
1.8330963 8.7217517 31.4043149 -0.0658187 -0.1841807 0.9806862
-0.4068017 8.7753543 30.3517975 -0.3907952 -0.4890254 0.7798290
-3.2845862 8.8808380 27.9755178 -0.5893818 -0.5712504 0.5712286
-6.6855939 9.0222267 24.6994070 -0.6256854 -0.2713777 0.7313494
-9.2305837 9.0818893 23.5382398 -0.2100109 0.1684990 0.9630698
-11.3241242 9.1008572 23.4251634 0.0945052 0.5196973 0.8491074
-13.1969006 9.1010859 23.7921490 0.1568201 0.6928772 0.7037959
-14.9695279 9.0934065 24.3603298 0.1401984 0.7905844 0.5960878
-16.8693741 9.0948250 24.6994336 -0.0291747 0.8750379 0.4831744
29.1963904 7.4861723 6.8810635 0.6373042 0.5322817 0.5572428
27.4655146 7.4581467 8.4706365 0.5949662 0.5403298 0.5950285
25.8011744 7.4241799 10.3499161 0.6566357 0.5332935 0.5333176
24.2652682 7.3770363 12.8738212 0.8186505 0.4067169 0.4054537
21.7765174 7.2346602 20.2617318 0.6923653 0.5248793 0.4951081
20.2565099 7.2114619 21.5870207 0.4857107 0.5908721 0.6441702
18.6617215 7.1986267 22.4024792 0.3648177 0.5995202 0.7123788
17.0704748 7.1863899 23.1876331 0.3520702 0.5891376 0.7272987
15.5164942 7.1716772 24.0924828 0.4080740 0.5966264 0.6910228
14.0303379 7.1525022 25.2129819 0.4621268 0.6139923 0.6398845
12.5846832 7.1318164 26.4045805 0.5227939 0.6285000 0.5759117
11.2105003 7.1076820 27.7607593 0.5432878 0.6432716 0.5394813
9.8763003 7.0828394 29.1479763 0.5565528 0.6614586 0.5027141
8.5982475 7.0563873 30.6095184 0.4580347 0.6289309 0.6282119
7.1918720 7.0397990 31.5920233 0.3447642 0.5411829 0.7669802
5.5847682 7.0358032 31.9669930 -0.0137527 0.4022477 0.9154276
3.7147038 7.0460313 31.6596698 -0.2262548 -0.0064196 0.9740470
1.3738628 7.0794299 30.2455210 -0.5889822 -0.3590625 0.7239986
-1.6389555 7.1430137 27.3958710 -0.5440347 -0.5688667 0.6167795
-4.6507527 7.2005900 24.8463890 -0.4794609 -0.4635777 0.7451261
-7.0820392 7.2261539 23.8337107 -0.1225906 -0.1298518 0.9839258
-9.1483602 7.2329916 23.7172552 0.1113354 0.0524790 0.9923963
-10.9266331 7.2265035 24.2354593 0.2680548 0.3518227 0.8968653
-12.5333633 7.2129364 25.0888033 0.3880928 0.5261737 0.7566540
-14.0622329 7.1967535 26.0644001 0.3550960 0.5972771 0.7191432
-15.6747315 7.1843852 26.8584469 0.1949362 0.6572684 0.7280097
-17.6320614 7.1850569 27.0383036 -0.1904403 0.6597482 0.7269558
29.3195606 5.5617192 8.0588664 0.6718734 0.4478268 0.5899468
27.6340081 5.5491431 9.9246492 0.6359069 0.5059447 0.5827884
25.9814820 5.5369750 11.7157414 0.6973022 0.5345313 0.4775416
22.1194378 5.4817359 22.2285956 0.4339207 0.7366699 0.5186812
20.5683627 5.4732793 23.2099095 0.2868297 0.7157207 0.6367673
18.9778681 5.4658848 23.9146848 0.2819380 0.6966108 0.6597305
17.3907487 5.4585628 24.6045698 0.3523402 0.6692980 0.6541380
15.8654707 5.4504054 25.5321256 0.4108148 0.6554275 0.6337555
14.3883888 5.4418157 26.5932791 0.4596721 0.6442150 0.6113008
12.9861984 5.4325623 27.8600980 0.5462342 0.6280457 0.5542443
11.6486180 5.4229353 29.2574204 0.5775361 0.6393160 0.5076682
10.4199956 5.4125454 30.9061370 0.5654059 0.6517129 0.5055556
9.0811567 5.4038436 32.0842008 0.3716431 0.6255947 0.6859392
7.5786844 5.3970308 32.7092792 0.2412817 0.5852681 0.7741088
5.8226259 5.3925577 32.6160674 -0.2476905 0.3086224 0.9183690
3.6187304 5.3916060 31.3984882 -0.5058618 -0.0686552 0.8598781
0.3615739 5.3982576 27.6967744 -0.6807468 -0.4296353 0.5932936
-2.7500843 5.4021994 24.7299799 -0.4583915 -0.4236514 0.7812789
-5.1751419 5.4000693 23.6458718 -0.1513742 -0.2438583 0.9579243
-7.2661231 5.3951716 23.4337155 0.0492009 -0.1663007 0.9848469
-9.1093657 5.3884874 23.8054148 0.3633419 0.0975285 0.9265370
-10.7214867 5.3804079 24.6577493 0.4826433 0.2176747 0.8483355
-12.2006110 5.3717050 25.7442929 0.5255244 0.3754214 0.7634677
-13.5991644 5.3627623 26.9401751 0.4709271 0.4328816 0.7686620
-15.1144041 5.3545867 27.8785960 0.3597756 0.4796876 0.8002882
-16.8685521 5.3476198 28.3753409 -0.0174189 0.4869294 0.8732677
-19.3106197 5.3435942 27.7275573 -0.5032076 0.3862539 0.7730395
29.4661069 3.6766925 9.5185119 0.7576781 0.4970677 0.4229038
24.0210259 3.7947042 23.3760684 0.4053121 0.7944183 0.4523513
22.5133287 3.7961048 24.5062226 0.3449153 0.7850510 0.5145176
20.9383730 3.7914075 25.1536302 0.2210045 0.7460076 0.6281955
19.3426454 3.7850642 25.6724766 0.2495953 0.7386368 0.6261931
17.7835097 3.7809243 26.3575296 0.2936666 0.7208093 0.6278486
16.2458970 3.7777012 27.1075331 0.3845159 0.6806400 0.6235998
14.7838716 3.7781360 28.1235403 0.4612562 0.6580228 0.5951879
13.4038264 3.7819423 29.3764931 0.5608021 0.6295307 0.5377658
12.1227209 3.7894127 30.8803524 0.5962868 0.6239254 0.5051327
10.8664350 3.7966365 32.3462557 0.4583093 0.6190809 0.6377237
9.4888226 3.7973123 33.3266352 0.3989045 0.5972621 0.6958112
7.9162486 3.7892672 33.6826913 -0.0618720 0.4649768 0.8831582
6.0706329 3.7704997 33.2934658 -0.3809078 0.3335395 0.8623576
3.4958881 3.7248592 31.0663450 -0.6952694 -0.0496220 0.7170342
-0.5422779 3.6284005 25.4202772 -0.6475910 -0.3026048 0.6993256
-3.1726920 3.5883560 23.7147362 -0.2755427 -0.1693696 0.9462506
-5.3638602 3.5656330 23.2144093 -0.0671319 -0.1627757 0.9843766
-7.2996863 3.5523912 23.3637815 0.2474646 0.0347378 0.9682740
-9.0222387 3.5463623 23.9947116 0.4207396 0.1635900 0.8923096
-10.5512961 3.5462646 25.0094929 0.5614623 0.2549299 0.7872552
-11.9497531 3.5496809 26.2410009 0.6100661 0.3152247 0.7269476
-13.3152050 3.5534619 27.4819910 0.5401215 0.3938058 0.7437646
-14.7459541 3.5547879 28.5541989 0.3817502 0.4301626 0.8180629
-16.4035414 3.5493844 29.1957794 0.0764096 0.4151072 0.9065581
-18.6313547 3.5284978 28.8789081 -0.4396450 0.2830841 0.8523941
25.8642079 2.1588588 24.4843495 0.4679141 0.7291656 0.4993736
24.3807674 2.1726253 25.6758013 0.3717856 0.7263262 0.5781225
22.8459696 2.1734595 26.4184932 0.2519774 0.7098850 0.6577011
21.2832008 2.1684993 26.9624115 0.2303338 0.7069300 0.6687274
19.7098628 2.1617218 27.4448264 0.2350730 0.6948952 0.6796038
18.1436294 2.1559800 27.9617924 0.2903656 0.6817099 0.6715352
16.6179688 2.1554051 28.6487480 0.3844898 0.6627838 0.6425614
15.1479279 2.1608547 29.5300501 0.4857446 0.6345953 0.6011164
13.8060850 2.1795747 30.8368186 0.5896120 0.6124813 0.5265210
12.5525602 2.2050631 32.3499418 0.6009981 0.5952836 0.5333280
11.2557976 2.2228002 33.5998714 0.4172185 0.5780889 0.7012432
9.8134326 2.2239856 34.3125019 0.3077777 0.5194340 0.7971582
8.2177750 2.2102466 34.5508735 -0.0425414 0.4521244 0.8909398
6.3188865 2.1702855 33.9716991 -0.4728572 0.2760693 0.8367746
3.4162936 2.0479572 30.8482769 -0.8809118 0.0157698 0.4730177
-0.8767949 1.8217624 24.5744257 -0.5117329 -0.0594204 0.8570873
-3.3063221 1.7585637 23.3922985 -0.2657232 -0.0633642 0.9619647
-5.3668747 1.7273663 23.2084050 0.0837678 0.0903059 0.9923849
-7.2054252 1.7140275 23.5741111 0.2899859 0.1916052 0.9376543
-8.8482778 1.7148481 24.3664449 0.4885083 0.2827284 0.8254843
-10.3092595 1.7274809 25.5060469 0.6030546 0.3328253 0.7249499
-11.6665102 1.7456642 26.8003488 0.6362280 0.3649552 0.6797217
-12.9563921 1.7665773 28.1631469 0.5599247 0.4173859 0.7157327
-14.3545981 1.7791305 29.2707104 0.4062160 0.5003776 0.7645985
-15.9836508 1.7767033 29.9379538 0.0341368 0.4264267 0.9038777
-18.1217862 1.7443228 29.7468259 -0.5019012 0.2354300 0.8322667
29.0085718 0.4853759 23.0018160 0.6897838 0.6178851 0.3773808
27.5888527 0.5471801 25.0134403 0.5998242 0.6220870 0.5032084
26.1134347 0.5737960 26.2332062 0.4673985 0.5961471 0.6527996
24.6164087 0.5868347 27.1474860 0.3565859 0.5892829 0.7249773
23.0912870 0.5883701 27.8069453 0.2906183 0.5899076 0.7533591
21.5412435 0.5821994 28.2981977 0.2298019 0.6051507 0.7622229
19.9849801 0.5745407 28.7575477 0.2336105 0.6058188 0.7605325
18.4356221 0.5685716 29.2531869 0.2783045 0.5994793 0.7504473
16.9192895 0.5692339 29.8888389 0.4021038 0.5876849 0.7020962
15.4881234 0.5851487 30.8427595 0.5133038 0.5706575 0.6409908
14.1646311 0.6176069 32.1356289 0.6028557 0.5398551 0.5874704
12.8743530 0.6513065 33.4436494 0.5697373 0.4742848 0.6711582
11.5213234 0.6707731 34.4478332 0.4048510 0.4500281 0.7959713
10.0558103 0.6706362 35.0441941 0.2127374 0.3843544 0.8983399
8.4374069 0.6478815 35.1794773 -0.2165130 0.2773768 0.9360471
6.5256386 0.5862537 34.5348207 -0.5161143 0.1945630 0.8341290
3.5329418 0.3870840 31.1481361 -0.8843709 0.0495154 0.4641512
-0.9012183 0.0219051 24.5078661 -0.5775133 0.0680858 0.8135372
-3.2274169 -0.0593039 23.5794276 -0.1667022 0.1838085 0.9687233
-5.2148098 -0.0953614 23.5576876 0.1811174 0.2984502 0.9370827
-6.9637043 -0.1025068 24.1077235 0.3580350 0.3654130 0.8592347
-8.5238949 -0.0891943 25.0541816 0.5258541 0.4215481 0.7387656
-9.9336498 -0.0615100 26.2718202 0.6075356 0.4492075 0.6550673
-11.2243065 -0.0240315 27.6674793 0.6228643 0.4628498 0.6307219
-12.5274327 0.0094116 28.9748200 0.5351534 0.5248919 0.6618907
-13.9199383 0.0318822 30.0646982 0.4289357 0.4960807 0.7549292
-15.4938736 0.0358615 30.8007078 -0.0039592 0.4501939 0.8929221
-17.6022516 -0.0087226 30.6310620 -0.4199282 0.2925066 0.8591276
30.5974588 -1.2020562 22.1811265 0.8066986 0.4651628 0.3645009
29.1770570 -1.0976969 24.4934370 0.7257749 0.4247674 0.5411317
27.7311360 -1.0366337 26.0822648 0.6411301 0.4077886 0.6501236
26.2577412 -1.0043787 27.1937276 0.4960818 0.4139746 0.7632351
24.7653879 -0.9882140 28.0399563 0.4032931 0.4181797 0.8139290
23.2558406 -0.9828559 28.7097555 0.3434007 0.4048375 0.8474565
21.7276595 -0.9859813 29.2430262 0.3052601 0.4260206 0.8516588
20.1913158 -0.9922174 29.7267437 0.2817457 0.4485967 0.8481629
18.6600833 -0.9969529 30.2339149 0.3236580 0.4777274 0.8167142
17.1654939 -0.9918143 30.8942598 0.3898992 0.4831665 0.7839189
15.7511692 -0.9674521 31.8493912 0.5501027 0.4516926 0.7023965
14.4152347 -0.9277741 33.0338431 0.6014026 0.4221784 0.6782922
13.0978991 -0.8890318 34.1953145 0.5290677 0.4002448 0.7482590
11.7140527 -0.8694779 35.0573193 0.3471078 0.3122226 0.8843264
10.2314913 -0.8728060 35.5696571 0.1094529 0.2606162 0.9592180
8.5888180 -0.9077216 35.6084399 -0.1779634 0.1976201 0.9639893
6.6746756 -0.9906764 34.9377539 -0.4316984 0.1372426 0.8915161
3.8358793 -1.2319888 31.9397812 -0.8469437 0.0805363 0.5255475
-0.7022903 -1.7443763 25.0026907 -0.5073612 0.2463373 0.8257739
-2.9775855 -1.8446993 24.1763889 -0.1684543 0.3678693 0.9144918
-4.9040796 -1.8827786 24.2704625 0.2093013 0.3951456 0.8944568
-6.5714451 -1.8791605 24.9713329 0.3990248 0.5044138 0.7657323
-8.0808453 -1.8531324 25.9911486 0.5364079 0.5336237 0.6538443
-9.4009189 -1.8025489 27.3542143 0.5868643 0.5620110 0.5828670
-10.6796180 -1.7501051 28.7329166 0.5769689 0.5724060 0.5826305
-11.9930045 -1.7060558 29.9827531 0.5270425 0.5580447 0.6409464
-13.4092683 -1.6783780 30.9947818 0.3711068 0.5339647 0.7597114
-15.0153483 -1.6764367 31.6437448 0.0800020 0.4543226 0.8872376
-17.0619160 -1.7283448 31.5496705 -0.5030254 0.3592887 0.7860515
30.6778813 -2.8284029 22.8968710 0.8497970 0.1211847 0.5129906
29.2499562 -2.7079220 25.0318217 0.7568014 0.0922341 0.6471048
27.8045149 -2.6334163 26.5595383 0.6348485 0.1198190 0.7632894
26.3313856 -2.5945300 27.6220075 0.5788176 0.1350708 0.8041928
24.8521409 -2.5684586 28.5156757 0.4450988 0.1538214 0.8821712
23.3439929 -2.5624687 29.1519487 0.3710614 0.2059342 0.9054858
21.8338261 -2.5595023 29.7486078 0.3658558 0.1897782 0.9111168
20.3202649 -2.5593853 30.3084847 0.3702992 0.2447617 0.8960860
18.8141617 -2.5574229 30.8902434 0.3962254 0.3360300 0.8544526
17.3454553 -2.5435631 31.6170181 0.4792835 0.3629299 0.7991053
15.9379576 -2.5123310 32.5531058 0.5578063 0.3587949 0.7484105
14.5991516 -2.4645667 33.6845338 0.6016256 0.3046017 0.7384202
13.2560184 -2.4241760 34.7191323 0.5264979 0.2303450 0.8183771
11.8452735 -2.4072691 35.4652000 0.3075349 0.1852096 0.9333379
10.3349608 -2.4185536 35.8716872 0.1512856 0.1517820 0.9767676
8.6828025 -2.4643899 35.8692869 -0.2022059 0.0692718 0.9768901
6.7641885 -2.5693915 35.1754147 -0.5268203 0.0790314 0.8462945
4.0995224 -2.8338825 32.6278171 -0.7771303 0.1004636 0.6212693
-0.2797230 -3.4469535 26.0597093 -0.5317020 0.3503933 0.7710496
-2.5954350 -3.5835454 25.0906375 -0.1575716 0.4626570 0.8724217
-4.4822029 -3.6246561 25.2378572 0.2921388 0.5526186 0.7805559
-6.0809353 -3.6079735 26.0502754 0.4349688 0.5854232 0.6841651
-7.5138692 -3.5623125 27.1883496 0.5463053 0.5872264 0.5972569
-8.7908354 -3.4924189 28.5923562 0.5784180 0.5871573 0.5662852
-10.0894896 -3.4313828 29.8861303 0.5550922 0.5831441 0.5931405
-11.4322420 -3.3820847 31.0394873 0.4884628 0.5562691 0.6722863
-12.8862423 -3.3542963 31.9467613 0.3171978 0.5339806 0.7837412
-14.5296527 -3.3583467 32.4989084 0.0021231 0.4589302 0.8884698
-16.5485362 -3.4198222 32.4230253 -0.3869445 0.3496069 0.8532579
29.2400766 -4.3804759 24.7402020 0.7653372 -0.2781840 0.5804073
27.8060439 -4.2749983 26.4170078 0.6508601 -0.1949235 0.7337479
26.3480597 -4.2133568 27.6196748 0.5754726 -0.1635207 0.8013066
24.8684227 -4.1800820 28.5177336 0.4978309 -0.1377304 0.8562679
23.3856482 -4.1562159 29.3133076 0.4332310 -0.0777474 0.8979233
21.8902941 -4.1443015 29.9817822 0.4477428 0.0820545 0.8903895
20.3962470 -4.1346639 30.6247144 0.4127170 0.1012831 0.9052107
18.9122756 -4.1228207 31.2883159 0.4445451 0.1789361 0.8777024
17.4763215 -4.0932269 32.1301430 0.5090969 0.2304202 0.8292930
16.0776287 -4.0535494 33.0696292 0.5870684 0.2276601 0.7768665
14.7236823 -4.0028328 34.1146062 0.5766423 0.1881240 0.7950428
13.3463893 -3.9667523 35.0067921 0.4834028 0.1326344 0.8652918
11.9065776 -3.9558906 35.6437182 0.3642403 0.1076871 0.9250581
10.3790615 -3.9742893 35.9899268 0.1110394 0.0125496 0.9937368
8.7091229 -4.0340379 35.9319413 -0.2498600 0.0023336 0.9682792
6.7852836 -4.1611778 35.2230342 -0.4122740 -0.0130803 0.9109660
4.2569069 -4.4423165 33.0354236 -0.7314099 0.0457624 0.6804008
0.2944485 -5.0744331 27.4979290 -0.5953308 0.3972601 0.6984022
-2.1092236 -5.2657716 26.2544360 -0.1330023 0.6315202 0.7638669
-3.9770027 -5.3138433 26.3961242 0.3143302 0.5750940 0.7552903
-5.5483328 -5.2901675 27.2214194 0.4298462 0.5791199 0.6927138
-6.9427188 -5.2291667 28.3941798 0.5511385 0.5609143 0.6177552
-8.2425142 -5.1524695 29.7058118 0.5849657 0.5386552 0.6063544
-9.5558631 -5.0841816 30.9297060 0.5537194 0.5193915 0.6508666
-10.9250587 -5.0320097 31.9961892 0.4691836 0.4964275 0.7303605
-12.4280496 -5.0096679 32.7822387 0.3403634 0.4679177 0.8156015
-14.0979255 -5.0207147 33.2605590 0.0433875 0.3749022 0.9260485
-16.1108235 -5.0946132 33.1699698 -0.3112877 0.2756624 0.9094560
29.1081161 -6.2004050 23.2180909 0.6339664 -0.6352123 0.4411257
27.7107032 -6.0163877 25.4351080 0.6237190 -0.5886141 0.5143035
26.2613604 -5.9217354 26.8330300 0.5330127 -0.4948382 0.6863182
24.8018875 -5.8562391 27.9613150 0.5181022 -0.4816567 0.7068076
23.3339711 -5.8103166 28.9091581 0.4602504 -0.3395579 0.8202865
21.8660092 -5.7735645 29.7710848 0.5330001 -0.2733140 0.8007561
20.4078379 -5.7381079 30.6174205 0.5236715 -0.0864731 0.8475203
18.9582361 -5.7042962 31.4453207 0.5300052 -0.0039031 0.8479854
17.5424258 -5.6592939 32.3661712 0.5537717 0.0636876 0.8302294
16.1542198 -5.6081238 33.3350848 0.5772470 0.0719338 0.8133950
14.7872186 -5.5546797 34.3178312 0.5360748 0.0524862 0.8425372
13.3788841 -5.5249916 35.0925425 0.4400231 0.0352619 0.8972938
11.9205505 -5.5185691 35.6668681 0.2504099 -0.0388288 0.9673609
10.3701812 -5.5473193 35.9440524 0.0615050 -0.1277970 0.9898914
8.6744200 -5.6248101 35.8157676 -0.2660909 -0.1185140 0.9566348
6.7410186 -5.7751058 35.0890384 -0.4642831 -0.1109586 0.8787089
4.3124313 -6.0708294 33.1741427 -0.6700003 -0.0440457 0.7410531
0.9561803 -6.6258633 29.1564089 -0.6505798 0.2735762 0.7084505
-1.5901241 -6.8987363 27.4971392 -0.1429570 0.4498675 0.8815796
-3.4541359 -6.9584404 27.5948441 0.3261656 0.4849673 0.8114325
-5.0098048 -6.9304625 28.4054729 0.4454017 0.4857710 0.7520930
-6.4294166 -6.8693785 29.4783583 0.5640769 0.4649479 0.6823787
-7.7451820 -6.7867704 30.7163250 0.5833658 0.4462396 0.6786417
-9.1110946 -6.7224041 31.8010353 0.5478642 0.4158231 0.7259036
-10.5217306 -6.6732158 32.7592866 0.4450626 0.3880306 0.8070635
-12.0512402 -6.6547457 33.4715989 0.3369116 0.3572910 0.8711106
-13.7608470 -6.6777817 33.8584695 -0.0185640 0.2325703 0.9724024
-15.8092875 -6.7728567 33.6897483 -0.3679517 0.1350413 0.9199866
24.5599868 -7.7056551 26.2198911 0.4344740 -0.7418694 0.5107467
23.1487132 -7.5850540 27.6937083 0.5267235 -0.6549479 0.5418539
21.7475797 -7.4794501 29.0417231 0.5652500 -0.4412958 0.6969580
20.3416298 -7.3950603 30.2184435 0.5895861 -0.3281274 0.7380519
18.9483082 -7.3164656 31.3435257 0.6159557 -0.1906397 0.7643658
17.5546200 -7.2498315 32.3712147 0.5945337 -0.1003944 0.7977786
16.1742619 -7.1855370 33.3751950 0.5835489 -0.0199647 0.8118325
14.7835855 -7.1349549 34.2709583 0.4935296 -0.0879698 0.8652687
13.3589553 -7.1068521 34.9952397 0.3985724 -0.1119171 0.9102827
11.8778488 -7.1076094 35.5038412 0.2061497 -0.1616491 0.9650761
10.2906150 -7.1537742 35.6791008 -0.0351839 -0.2114358 0.9767584
8.5817811 -7.2449380 35.5297283 -0.2663794 -0.1973998 0.9434380
6.6213277 -7.4247051 34.7453885 -0.4328260 -0.1904239 0.8811359
4.2360271 -7.7448060 32.9645071 -0.6563234 -0.1282957 0.7434916
1.3473918 -8.2149798 30.1349565 -0.6047816 0.0721719 0.7931144
-1.1794059 -8.5256674 28.4800049 -0.2446545 0.1429214 0.9590191
-3.0719329 -8.6074091 28.4712988 0.3843937 0.2237260 0.8956496
-4.6553188 -8.5872461 29.1860212 0.4696432 0.2139691 0.8565352
-6.0425701 -8.5101462 30.2968052 0.5920042 0.2477364 0.7669144
-7.4111035 -8.4334631 31.3976852 0.5986102 0.2532935 0.7599396
-8.7844565 -8.3637382 32.4435075 0.5373877 0.2401123 0.8084309
-10.2262329 -8.3175197 33.3214531 0.4255541 0.2160538 0.8787630
-11.8030625 -8.3100718 33.9302245 0.2922021 0.1993965 0.9353390
-13.5463155 -8.3458329 34.2445373 -0.0888224 0.1123057 0.9896959
-15.6776674 -8.4757210 33.9262801 -0.3864108 0.0512444 0.9209021
30.9780626 -12.4318880 1.8661809 0.7923831 -0.2763912 0.5438170
29.1528356 -12.2900700 3.5167581 0.5914426 -0.2195031 0.7758957
27.3153538 -12.2131608 4.7032274 0.4845751 -0.2775602 0.8295464
20.1675050 -9.1480116 29.2752670 0.6603137 -0.4283120 0.6168749
18.8532950 -8.9927601 30.8471255 0.6712703 -0.3422296 0.6574763
17.5020258 -8.8837273 32.0982513 0.5856889 -0.2105712 0.7827057
16.1286716 -8.8029053 33.1534253 0.5596861 -0.2058801 0.8027234
14.7316285 -8.7460337 34.0439378 0.4712583 -0.1835750 0.8626795
13.2805317 -8.7251316 34.6935066 0.2972793 -0.2386602 0.9244817
11.7717157 -8.7361930 35.1322962 0.1558634 -0.3148881 0.9362436
10.1503566 -8.8004566 35.2259103 -0.0526023 -0.3377071 0.9397802
8.3988933 -8.9181124 34.9790157 -0.2842139 -0.3741484 0.8827431
6.3879880 -9.1377105 34.0857738 -0.4507348 -0.3264135 0.8308383
3.9956835 -9.4961474 32.3218931 -0.5602467 -0.3464079 0.7524129
1.3426610 -9.9279710 30.1181350 -0.5738661 -0.1563903 0.8038779
-1.0603932 -10.2302101 28.7634191 -0.1723994 -0.2571064 0.9508810
-2.9523893 -10.3227526 28.7460209 0.3413659 0.0390364 0.9391195
-4.5038233 -10.2891691 29.5215745 0.4993585 -0.1002941 0.8605708
-5.8775465 -10.1983126 30.6492748 0.6118276 0.1479981 0.7770222
-7.2250348 -10.1056909 31.7806938 0.6004083 0.1450599 0.7864270
-8.6374511 -10.0402731 32.7381509 0.5263148 0.1330299 0.8398189
-10.0948037 -9.9932850 33.5780826 0.3881483 0.0946063 0.9167282
-11.7034233 -9.9944546 34.1225456 0.1973823 0.0354176 0.9796866
-13.5134561 -10.0537621 34.3167680 -0.0823480 -0.1087059 0.9906573
-15.8189936 -10.2479526 33.7081123 -0.5294564 -0.2203490 0.8192205
29.1315369 -14.3747659 2.9647343 0.5846559 -0.2578766 0.7692055
27.2862069 -14.2850275 4.1739179 0.4826244 -0.2247817 0.8464909
25.4334498 -14.2322684 5.1463934 0.4596847 -0.2275403 0.8584377
18.6884366 -10.7417584 30.0261026 0.6964319 -0.3922769 0.6009172
17.3914896 -10.5704430 31.5762439 0.6598207 -0.3246957 0.6776499
16.0302249 -10.4652626 32.7204321 0.5440321 -0.3133113 0.7783734
14.6141342 -10.4081370 33.5724045 0.3910296 -0.3219604 0.8622281
13.1437210 -10.3904812 34.1875303 0.2625867 -0.3790418 0.8873419
11.5923461 -10.4208019 34.5198500 0.1094209 -0.4100176 0.9054903
9.9240695 -10.5108132 34.5058218 -0.1225763 -0.4449147 0.8871448
8.0780662 -10.6825401 34.0236751 -0.2725457 -0.4496981 0.8505824
5.9602441 -10.9699660 32.8856040 -0.4697993 -0.4436645 0.7631844
3.4873700 -11.3960481 30.9714410 -0.5246221 -0.4074809 0.7474831
0.9563833 -11.8120970 29.1419845 -0.4267506 -0.4369948 0.7917825
-1.3222839 -12.0879704 28.1334450 -0.0870501 -0.4687809 0.8790147
-3.1701744 -12.1675688 28.2479701 0.3453954 -0.3960845 0.8507756
-4.6733065 -12.1067376 29.1535668 0.4562310 -0.3750636 0.8069576
-5.9653165 -11.9711613 30.4708105 0.6204576 -0.3213984 0.7153569
-7.2956331 -11.8594825 31.6464982 0.6034469 -0.2905883 0.7425700
-8.6783385 -11.7742259 32.6690918 0.5144045 -0.1530259 0.8437838
-10.1512081 -11.7256550 33.4850613 0.3455313 -0.1788117 0.9212136
-11.8048950 -11.7401707 33.9544854 0.1311643 -0.3124694 0.9408288
-13.7216897 -11.8382800 33.9727256 -0.1688775 -0.3251236 0.9304703
27.2536801 -16.3830892 3.6079843 0.5687583 -0.3175637 0.7587274
25.4080321 -16.2976878 4.7328221 0.4683358 -0.2142143 0.8571895
17.2042733 -12.3376927 30.7243384 0.6681623 -0.4285505 0.6081970
15.8851299 -12.1790177 32.1007309 0.5142937 -0.4151827 0.7504168
14.4442057 -12.1249579 32.9049514 0.3983722 -0.4209269 0.8149357
12.9400600 -12.1191690 33.4475403 0.2065333 -0.4500610 0.8687860
11.3417996 -12.1728835 33.6730891 0.0988393 -0.4575195 0.8836892
9.5890956 -12.3122973 33.4484144 -0.1768135 -0.5092643 0.8422511
7.6145295 -12.5624478 32.6495204 -0.3672337 -0.5349212 0.7609197
5.2640167 -12.9898157 30.9387396 -0.4537795 -0.5121642 0.7292270
2.7911570 -13.4418941 29.1244553 -0.4218608 -0.4712155 0.7745898
0.3692336 -13.8312562 27.6606492 -0.3266600 -0.4570315 0.8272941
-1.7906885 -14.0671168 27.0082173 -0.0958092 -0.4653203 0.8799418
-3.6313822 -14.1418888 27.1922896 0.1874557 -0.5424023 0.8189384
-5.1230990 -14.0609608 28.1712133 0.5262222 -0.5692361 0.6317123
-6.4030541 -13.8983471 29.5574465 0.5714840 -0.5418563 0.6162774
-7.6279777 -13.7255119 30.9849983 0.5233110 -0.5091067 0.6833417
-8.9778489 -13.6132658 32.0995711 0.3970635 -0.5219499 0.7549231
-10.4921685 -13.5704773 32.8625281 0.2698323 -0.5269228 0.8059422
-12.2198002 -13.6083028 33.2249827 0.0010912 -0.5429527 0.8397626
-14.4633884 -13.8259033 32.7079016 -0.3839510 -0.5682178 0.7278119
27.1545548 -18.6331101 2.3625082 0.6996224 -0.5236293 0.4861490
25.3609286 -18.4161068 4.1284384 0.5510465 -0.3846840 0.7405174
23.5171593 -18.3278517 5.2211585 0.5130100 -0.2560879 0.8192922
16.9367079 -14.2057844 29.5262631 0.7026039 -0.4743628 0.5304032
15.6396279 -13.9973633 31.0793055 0.5606053 -0.4951767 0.6637181
14.2065222 -13.9183985 31.9842072 0.3498773 -0.5166315 0.7814588
12.6584731 -13.9314426 32.4345932 0.1951383 -0.5092747 0.8381887
10.9953638 -14.0215559 32.5105765 -0.1154710 -0.5556392 0.8233660
9.1321414 -14.2313690 32.0122519 -0.2525006 -0.5588876 0.7898659
6.9913491 -14.5905423 30.8066797 -0.3847510 -0.4776592 0.7898154
4.6455403 -15.0359979 29.2075583 -0.4449306 -0.4258610 0.7878319
2.2781948 -15.4543029 27.7611971 -0.4113377 -0.3669623 0.8343500
-0.0532335 -15.8184093 26.5932572 -0.3045936 -0.3442407 0.8880997
-2.2125973 -16.0655419 25.9944415 -0.1107383 -0.3946102 0.9121512
-4.1502899 -16.1851829 26.0044498 0.0939972 -0.5565410 0.8254857
-5.8572349 -16.1874993 26.5657392 0.2921372 -0.6475606 0.7037905
-7.2255614 -16.0362610 27.8362398 0.4456707 -0.7089487 0.5465980
-8.4565253 -15.8358713 29.3240138 0.4439239 -0.7449867 0.4979221
-9.7862839 -15.6913744 30.5454190 0.3186275 -0.7392469 0.5932879
-11.3768215 -15.6636667 31.2285065 0.0642354 -0.7507871 0.6574136
-13.5939441 -15.8868408 30.7775159 -0.1628400 -0.8084072 0.5656509
25.2137068 -20.7414738 2.6466966 0.6332667 -0.6997601 0.3306194
23.4427110 -20.4877775 4.4910061 0.5625163 -0.3538613 0.7472333
21.6257267 -20.3567512 5.7452346 0.6005142 -0.3557449 0.7161203
16.5800291 -16.2009773 27.9438073 0.7591189 -0.5129461 0.4007801
15.3174355 -15.9204771 29.7504222 0.5837769 -0.5656082 0.5824876
13.8904665 -15.8105171 30.7702694 0.3489415 -0.5675199 0.7457621
12.3278919 -15.8192509 31.2496250 0.1237821 -0.5898073 0.7980009
10.5873864 -15.9583496 31.1450370 -0.1205643 -0.5636298 0.8171815
8.6570259 -16.2159314 30.5191361 -0.2629303 -0.4882754 0.8321387
6.5261189 -16.5816532 29.4265478 -0.3751988 -0.4285102 0.8219519
4.3048899 -16.9708114 28.2484855 -0.4019397 -0.3120262 0.8608625
2.0013702 -17.3754559 27.0215025 -0.3936039 -0.2558652 0.8829547
-0.3099218 -17.7506188 25.9426296 -0.3185558 -0.2543146 0.9131518
-2.5429792 -18.0523334 25.2001145 -0.1981069 -0.3418459 0.9186376
-4.6733707 -18.2762871 24.8070727 -0.1112078 -0.4062062 0.9069891
-6.7629138 -18.4629498 24.5844290 -0.0007560 -0.6712781 0.7412052
-8.7947962 -18.6081144 24.5473265 0.0431855 -0.8540412 0.5184097
-10.9821534 -18.8175832 24.2448248 -0.0475619 -0.8808495 0.4710011
-13.9151561 -19.3561588 22.5672772 -0.2486421 -0.7713754 0.5857962
-17.1187102 -19.9802553 20.5580899 -0.4238467 -0.6285188 0.6521642
-21.6960566 -21.1568312 16.2813922 -0.6389302 -0.4266288 0.6401219
21.4479521 -22.6740576 4.4018959 0.6013844 -0.5579048 0.5719083
14.9159027 -17.9669963 28.1030790 0.5902370 -0.6087564 0.5301282
13.5114832 -17.8030239 29.3204691 0.4154836 -0.6106327 0.6741669
11.9163019 -17.8185478 29.7804675 0.0719490 -0.5901190 0.8041038
10.1740742 -17.9495668 29.7612191 -0.0957484 -0.5738487 0.8133449
8.2502287 -18.2041478 29.2373392 -0.2426299 -0.4949511 0.8343585
6.2000300 -18.5246225 28.4541670 -0.2979304 -0.4121951 0.8610068
4.0372188 -18.8924068 27.4921196 -0.3521906 -0.3283499 0.8764406
1.7629570 -19.3004289 26.3831510 -0.3658427 -0.2546276 0.8951670
-0.5461100 -19.6958313 25.3434815 -0.3202136 -0.2512546 0.9134191
-2.8222827 -20.0397645 24.5282472 -0.2497066 -0.2879417 0.9245194
-5.1070496 -20.3621284 23.8145169 -0.2549755 -0.3756863 0.8909811
-7.5242797 -20.7337661 22.9195358 -0.2701165 -0.4625366 0.8444507
-10.1262099 -21.1770974 21.7581596 -0.2693547 -0.4894801 0.8293716
-12.8327375 -21.6434809 20.5261762 -0.2740745 -0.5388853 0.7965462
-15.5930592 -22.1054082 19.3324790 -0.2837051 -0.5862928 0.7587965
-18.8444418 -22.7730335 17.3615229 -0.4491501 -0.5532593 0.7015471
14.3654626 -20.2244080 25.8585661 0.6157022 -0.6641114 0.4241071
13.0290983 -19.9470232 27.4833895 0.4110944 -0.6594090 0.6294293
11.4663751 -19.9060330 28.1761954 0.1427589 -0.6289001 0.7642674
9.7249241 -20.0222042 28.2587348 -0.0316390 -0.5969984 0.8016183
7.8567499 -20.2292123 27.9963154 -0.1054601 -0.5531228 0.8263978
5.8464333 -20.5254890 27.4007316 -0.2133079 -0.4931175 0.8434067
3.7205311 -20.8791008 26.5992189 -0.2958080 -0.3830529 0.8750818
1.4840278 -21.2788969 25.6376281 -0.3148083 -0.3244994 0.8919618
-0.7844023 -21.6664049 24.7389730 -0.2937584 -0.2837763 0.9127853
-3.0778395 -22.0387281 23.9132997 -0.2790561 -0.2611803 0.9240739
-5.4546008 -22.4335807 23.0192770 -0.3064644 -0.2856449 0.9080124
-8.0108019 -22.9053499 21.8570787 -0.3670945 -0.3236126 0.8720760
-10.7597411 -23.4532334 20.4345321 -0.3574506 -0.3951803 0.8462042
-13.6399084 -24.0353618 18.9096105 -0.3521033 -0.4677553 0.8106962
-16.8583269 -24.7583914 16.8965901 -0.4009189 -0.6240441 0.6706959
12.2956424 -22.4136112 24.7069048 0.4452250 -0.7794799 0.4406652
10.8312650 -22.2300640 25.9225999 0.2402192 -0.7607830 0.6029129
9.1434274 -22.2703309 26.3198387 0.0655123 -0.6768781 0.7331740
7.3134371 -22.4295822 26.2896881 -0.0490210 -0.6360130 0.7701198
5.3534716 -22.6802777 25.9379197 -0.1368368 -0.5879473 0.7972413
3.2762665 -22.9996238 25.3511995 -0.1888154 -0.5034987 0.8431120
1.1215972 -23.3487574 24.6713217 -0.2149424 -0.4481862 0.8677148
-1.0892679 -23.7086909 23.9669576 -0.2242468 -0.3738304 0.8999801
-3.3593004 -24.0801492 23.2361993 -0.2537092 -0.3261442 0.9106380
-5.7813640 -24.5228452 22.2716721 -0.3392966 -0.3183755 0.8851637
-8.4365924 -25.0800209 20.9277904 -0.3912702 -0.3382720 0.8558503
-11.4143673 -25.7936398 19.0667922 -0.4523636 -0.4460571 0.7722696
15.2650702 -29.4658098 3.9033320 0.6782770 -0.5894096 0.4387900
13.6475165 -29.0097238 6.1448398 0.5475932 -0.5359976 0.6425327
11.8824827 -28.8013513 7.5069728 0.4534428 -0.5412514 0.7081219
7.9904691 -25.1417878 22.4985018 0.2406938 -0.8679588 0.4344122
6.3737898 -25.0561688 23.3519050 0.1907633 -0.8336726 0.5182657
4.5729284 -25.1401977 23.6304697 0.0694393 -0.7279421 0.6821133
2.6016995 -25.3585058 23.4621401 -0.0052382 -0.6499182 0.7599861
0.5618643 -25.6123104 23.1834410 -0.0784632 -0.5810520 0.8100754
-1.5396106 -25.8917684 22.8289495 -0.1252933 -0.4593063 0.8793971
-3.7868308 -26.2549746 22.2087472 -0.2237306 -0.4613084 0.8585681
-6.2599627 -26.7481034 21.1762714 -0.3246245 -0.4590867 0.8269573
-9.2116561 -27.5263963 19.2332115 -0.4144828 -0.5637896 0.7143846
13.2554714 -31.6387499 4.2455543 0.6139664 -0.6092265 0.5018848
11.5369377 -31.3142041 5.9567619 0.4581114 -0.5510178 0.6975051
9.7063082 -31.1708528 7.0647167 0.3688918 -0.5459838 0.7522104
7.8013135 -31.1317618 7.8287982 0.2411525 -0.6303687 0.7378894
5.8313581 -31.1685874 8.3460432 0.0901723 -0.7689991 0.6328581
1.4691048 -28.1909844 20.2981774 0.2145157 -0.8297440 0.5152746
-0.2976359 -28.1841017 20.9030492 0.0715454 -0.7436870 0.6646886
-2.3352693 -28.3965219 20.8222278 -0.0416408 -0.7078613 0.7051230
-4.6353911 -28.7946966 20.1714648 -0.2003229 -0.7214694 0.6628368
10.9785377 -34.1793112 3.4869858 0.4999819 -0.7191183 0.4825836
9.2269061 -33.8710236 5.0914658 0.3067167 -0.7151786 0.6280482
7.2561418 -33.8684933 5.7459803 0.0918860 -0.7133902 0.6947167
4.9422936 -34.2605907 5.1941699 -0.2333123 -0.7288792 0.6436618
16.3738631 29.0410736 3.9128919 0.6705664 0.7367738 -0.0866318
16.3803645 28.9989103 5.8407866 0.6877235 0.7118942 0.1422783
14.8292533 29.4385400 7.7832971 0.4160153 0.8200011 0.3931023
17.9320264 26.7439262 -1.7853728 0.5072048 0.8609817 -0.0381276
17.9013653 26.7147502 0.1224672 0.8514521 0.5243867 -0.0069206
17.7516866 26.7205223 2.0235707 0.9172072 0.3983088 -0.0090021
17.7706112 26.6768644 3.9302980 0.9439166 0.3301812 0.0013293
17.8555090 26.6139772 5.8336144 0.9423860 0.3325379 0.0364314
17.7022430 26.6208193 7.7336858 0.9147141 0.3748652 0.1509115
17.0875550 26.7623303 9.6487485 0.7523073 0.5466631 0.3676862
26.9390155 22.4886124 -9.9646317 0.6449054 0.6945378 -0.3189267
27.3294298 22.3460590 -8.1390195 0.6085188 0.7867670 0.1034535
26.5223956 22.5365779 -6.4772548 0.5563553 0.7093518 0.4327687
24.0274501 23.1951407 -4.9706991 0.5110646 0.6373334 0.5767315
21.4026646 23.8881415 -3.3943815 0.5886854 0.6268362 0.5104174
19.8294515 24.2882992 -1.6560975 0.7225528 0.5282186 0.4459849
18.7571467 24.5489491 0.1600835 0.9184684 0.2831671 0.2761016
18.2482174 24.6533194 2.0312119 0.9838226 0.1430967 0.1077793
18.0795796 24.6635164 3.9238825 0.9934058 0.1141584 -0.0106183
18.2143420 24.5900372 5.8207533 0.9894251 0.1335949 -0.0564830
18.2727043 24.5377379 7.7108698 0.9827540 0.1848986 -0.0026686
18.2494288 24.5079851 9.5982253 0.9469439 0.3023586 0.1089791
17.5022595 24.6771117 11.5155866 0.7654084 0.4929487 0.4137046
27.6135959 20.5632282 -11.6199992 0.6852284 0.4909797 -0.5379599
28.9014325 20.1942243 -9.6566178 0.8437300 0.4399606 -0.3074968
29.2211773 20.0788955 -7.8756671 0.8585837 0.5078949 0.0698337
28.7465497 20.1710244 -6.2064114 0.7895428 0.5299571 0.3094633
27.1320266 20.5598919 -4.6453076 0.5268504 0.6011365 0.6008857
23.3329221 21.5162926 -3.2282477 0.4806586 0.5106441 0.7128884
20.6724692 22.1744463 -1.6032086 0.7019082 0.3610512 0.6139764
19.1852098 22.5264449 0.1739579 0.9045173 0.1946544 0.3794182
18.4076036 22.6935714 2.0257899 0.9578853 0.1557726 0.2412273
18.1202625 22.7333021 3.9115684 0.9969799 0.0625459 0.0460340
18.2482667 22.6654700 5.8061926 0.9954120 0.0720073 -0.0630075
18.4338331 22.5829004 7.6927974 0.9921543 0.0929030 -0.0836589
18.6549578 22.4913244 9.5691312 0.9843766 0.1758090 -0.0096870
18.5708688 22.4786136 11.4485934 0.9101888 0.3608020 0.2034167
17.2403991 22.7868026 13.4039485 0.5224976 0.5070307 0.6855042
28.6315359 18.5458015 -11.4417774 0.8190516 0.2127765 -0.5328045
29.6327690 18.2705929 -9.5422036 0.9109736 0.2185897 -0.3497794
30.0755632 18.1323533 -7.7578080 0.9609633 0.2714614 -0.0534620
29.8783171 18.1504814 -6.0702192 0.9014274 0.3686544 0.2269860
28.9484332 18.3469582 -4.4568163 0.6455708 0.5080744 0.5701743
26.4927282 18.9140615 -2.9516417 0.4247813 0.5075183 0.7496572
21.8813602 20.0034545 -1.5235408 0.5268847 0.4618214 0.7135219
19.7542017 20.4874119 0.1958165 0.7715357 0.2700436 0.5760287
18.7270270 20.7035935 2.0266950 0.9484618 0.1892418 0.2541806
18.3705436 20.7568825 3.9039917 0.9749614 0.1735389 0.1390485
18.3565169 20.7272238 5.7920903 0.9904774 0.1336453 -0.0330667
18.5637300 20.6441884 7.6751409 0.9790476 0.1433205 -0.1446547
18.9121586 20.5272698 9.5442956 0.9750426 0.1790664 -0.1312520
19.1544335 20.4361789 11.4034843 0.9766524 0.2148202 0.0015666
19.0370945 20.4318038 13.2734765 0.8724635 0.3842991 0.3018634
11.4243444 20.8857089 -24.6526399 0.7305938 0.4600098 -0.5046026
28.7921869 16.7611640 -11.4129561 0.8238942 -0.0454765 -0.5649162
29.8975726 16.4808257 -9.5011586 0.9403163 0.0206195 -0.3396763
30.3348628 16.3528905 -7.7234313 0.9810695 0.0582792 -0.1846788
30.3965222 16.3104524 -6.0096833 0.9750212 0.1717261 0.1408681
29.9228430 16.3893748 -4.3578665 0.8651320 0.3516892 0.3575771
28.6994066 16.6377215 -2.7601375 0.5501562 0.5104501 0.6608849
24.8386526 17.4814215 -1.3162514 0.3494093 0.5325798 0.7708904
20.9346853 18.3327592 0.2520875 0.6566008 0.4756251 0.5853683
19.4179232 18.6438268 2.0422886 0.8513986 0.3730328 0.3687371
18.8069782 18.7501571 3.9006965 0.9515398 0.2773784 0.1327902
18.6661044 18.7504945 5.7792191 0.9623297 0.2718474 -0.0045237
18.8628412 18.6749812 7.6557151 0.9659626 0.2227487 -0.1315268
19.2273366 18.5619983 9.5179757 0.9645900 0.2069706 -0.1634907
19.6468846 18.4369349 11.3626265 0.9456983 0.3024701 -0.1190232
19.8587113 18.3586336 13.2029216 0.9360696 0.3428414 0.0789527
19.3869294 18.4332724 15.0860272 0.7279637 0.4815146 0.4880702
12.7334573 18.5617435 -24.3036029 0.8070730 0.2205556 -0.5477119
14.4193175 18.1726672 -21.8697319 0.7917117 0.1665209 -0.5877613
28.4594739 15.0888123 -11.4701035 0.7930940 -0.2160247 -0.5695043
29.6195395 14.8171233 -9.5454931 0.8940296 -0.1862498 -0.4074581
30.2238061 14.6628919 -7.7410276 0.9563088 -0.1406750 -0.2562890
30.4987674 14.5781376 -6.0004670 0.9950245 -0.0632837 -0.0769501
30.3517492 14.5820193 -4.3169705 0.9381368 0.2278362 0.2607491
29.7831898 14.6741071 -2.6691516 0.7972173 0.3579274 0.4861404
28.1471520 14.9891044 -1.0828806 0.5130488 0.5376931 0.6690793
23.5299689 15.9257244 0.3880574 0.4255652 0.5915599 0.6848001
20.8079355 16.4647418 2.0855992 0.6658475 0.5599979 0.4930004
19.7386450 16.6581548 3.9087594 0.8362069 0.4995892 0.2262050
19.4119999 16.6965794 5.7690635 0.9053163 0.4225467 0.0430899
19.5007821 16.6485806 7.6327794 0.9178715 0.3891068 -0.0781522
19.7943384 16.5581920 9.4848993 0.9239676 0.3569837 -0.1372826
20.1819816 16.4485106 11.3200932 0.9369550 0.3172797 -0.1464547
20.5089824 16.3516306 13.1430776 0.9261383 0.3763769 -0.0246634
20.4251665 16.3398785 14.9839097 0.8686732 0.4267094 0.2516465
19.4162223 16.5190951 16.9111759 0.6091959 0.4772484 0.6333359
3.2541153 19.8217865 20.5381942 0.6634984 0.6266133 0.4088100
1.8229884 20.0830091 22.8293519 0.5446794 0.7725535 0.3263212
11.3467475 16.8422177 -26.7046422 0.7588713 0.1211486 -0.6398729
13.0792601 16.4736243 -24.2046084 0.8215920 0.1425815 -0.5519576
14.6803792 16.1315544 -21.7989640 0.7782540 0.1476693 -0.6103397
27.7916200 13.4729478 -11.5856399 0.7627767 -0.2882101 -0.5788839
28.9999820 13.2128866 -9.6435508 0.8307684 -0.2978303 -0.4702349
29.7996653 13.0324303 -7.8025786 0.9007366 -0.2682196 -0.3416605
30.3349948 12.9034226 -6.0240936 0.9614213 -0.1704686 -0.2158922
30.5069666 12.8447367 -4.3052160 0.9998055 -0.0116907 0.0158850
30.3644704 12.8466890 -2.6231620 0.9252778 0.2736357 0.2626491
29.6965492 12.9495797 -0.9774696 0.7797295 0.4522117 0.4330433
27.9453598 13.2600695 0.6269060 0.4996660 0.6451976 0.5779740
23.6585114 14.0557099 2.1869323 0.4411070 0.7138095 0.5439674
21.5157490 14.4388377 3.9363381 0.6426667 0.6727878 0.3665189
20.7773039 14.5524854 5.7629124 0.8178950 0.5669284 0.0981833
20.6101793 14.5567375 7.6050804 0.8320098 0.5540735 0.0276092
20.7002980 14.5119052 9.4428162 0.8751829 0.4722245 -0.1051611
21.0522672 14.4173039 11.2630957 0.9004775 0.4181242 -0.1196344
21.3087864 14.3410737 13.0744786 0.9100673 0.4136287 -0.0262459
21.3472313 14.3064308 14.8911730 0.9103648 0.3909083 0.1357444
20.7554020 14.3913918 16.7625371 0.7966305 0.4210976 0.4336550
17.7046673 14.9418606 18.9208282 0.3176300 0.4790374 0.8183119
3.8189459 17.5405051 22.5464064 0.7127319 0.5657684 0.4146315
2.5235133 17.7537538 24.8269779 0.7423085 0.5721540 0.3487377
1.3566390 17.9421586 27.1262182 0.6486624 0.6463341 0.4018574
11.6820237 14.7398020 -26.6008744 0.6648463 0.1336989 -0.7349177
13.6809948 14.3550816 -24.0393313 0.7924996 0.2356333 -0.5625133
15.3185812 14.0355957 -21.6369005 0.7576992 0.2880387 -0.5855985
25.2323379 12.1971155 -13.8275385 0.7555136 -0.1618317 -0.6348305
26.9329101 11.8710468 -11.7344189 0.7491643 -0.3175238 -0.5813188
28.2021655 11.6219621 -9.7696557 0.7942663 -0.3557700 -0.4925128
29.1709512 11.4264866 -7.8928670 0.8514172 -0.3124048 -0.4212980
29.8838442 11.2765566 -6.0832288 0.9155219 -0.2425288 -0.3209352
30.3873505 11.1638126 -4.3227644 0.9701847 -0.0525038 -0.2366116
30.6426610 11.0949161 -2.6043359 0.9877105 0.1544944 0.0236536
30.5186028 11.0926832 -0.9249873 0.9210467 0.3150145 0.2289952
30.0142357 11.1570074 0.7343274 0.7924143 0.5192613 0.3200738
28.6588957 11.3699000 2.3740437 0.5533463 0.6813051 0.4791986
25.5204605 11.8934907 4.0154032 0.4193005 0.7786552 0.4667796
23.2892618 12.2574595 5.7642977 0.5618214 0.7666625 0.3107819
22.4113998 12.3847821 7.5705269 0.6948499 0.6937620 0.1894146
22.1623201 12.4024019 9.3860175 0.8136931 0.5783978 0.0579610
22.1772955 12.3740955 11.1953132 0.8747633 0.4838451 -0.0261379
22.1977003 12.3448965 13.0008428 0.9092719 0.4159466 0.0145960
22.1877101 12.3210123 14.8050937 0.9205411 0.3643798 0.1408243
21.7719937 12.3673293 16.6445754 0.8775603 0.3199997 0.3570548
