11.1540698 -19.4090528 28.6501393 0.2326403 -0.7108038 0.6638045
18.1650281 0.4804619 -32.8901702 0.6233155 -0.0588836 -0.7797503
19.6140073 -0.2527913 -31.5486679 0.7349718 -0.1432771 -0.6627882
20.8298075 -0.0616570 -30.1226862 0.7833904 -0.1271450 -0.6083860
14.5674173 -1.0416342 -34.6535860 0.3707946 -0.3003161 -0.8788183
16.1928876 -2.3356197 -33.3562606 0.4244840 -0.5117949 -0.7469132
17.6120817 -2.9711060 -32.0272439 0.5044959 -0.5119384 -0.6952719
18.9370942 -3.2968882 -30.6801646 0.5689627 -0.5233964 -0.6343009
20.2054953 -3.4231460 -29.3169194 0.6378135 -0.5062890 -0.5804011
21.3828759 -3.1762368 -27.9068823 0.7354672 -0.4707329 -0.4873382
22.4805556 -2.5513005 -26.4355095 0.7897061 -0.4432792 -0.4241083
23.4434142 -1.2323087 -24.8386997 0.9181178 -0.1012606 -0.3831526
28.1748207 17.9216735 -11.9587345 0.8347484 0.0678995 -0.5464291
12.0321615 -1.8194413 -34.9486827 0.1481685 -0.4747627 -0.8675520
13.7158972 -3.1957590 -33.6537074 0.2123267 -0.6627219 -0.7181344
15.2083121 -4.0258675 -32.3412581 0.2529592 -0.6875136 -0.6806884
16.6094023 -4.5986474 -31.0219026 0.2748574 -0.7683650 -0.5779867
17.9427349 -4.9691003 -29.6926073 0.3817591 -0.7556620 -0.5321983
19.2189490 -5.1520246 -28.3477661 0.4979757 -0.7190206 -0.4847984
20.4315775 -5.0962258 -26.9729662 0.6236838 -0.6570867 -0.4233859
21.5767245 -4.7516944 -25.5514297 0.7500242 -0.5645314 -0.3446272
22.6680173 -4.1358151 -24.0753132 0.7932744 -0.5439098 -0.2736381
23.6650305 -3.0189261 -22.4926772 0.8646086 -0.4680355 -0.1827422
24.5182427 -1.0766536 -20.7217206 0.9802076 -0.1426767 -0.1372457
24.3658624 13.7301874 -14.6386079 0.6049503 -0.0004079 -0.7962631
25.9287545 12.9970296 -13.2066834 0.7471174 -0.1576651 -0.6457223
27.3686929 12.9308561 -11.6301001 0.7949263 -0.2289715 -0.5618401
28.7327711 13.3652567 -9.9266562 0.8462614 -0.2167939 -0.4866642
30.0115918 14.4908222 -8.0263369 0.9524242 -0.0505026 -0.3005621
9.2503426 -1.8957211 -35.1968966 -0.0279464 -0.4768154 -0.8785591
11.0436457 -3.4719192 -33.9044868 0.0475936 -0.6851649 -0.7268314
12.6119812 -4.4535054 -32.5964755 0.1161979 -0.7739168 -0.6225358
14.0567184 -5.1049188 -31.2783298 0.1665730 -0.8105161 -0.5615310
15.4482636 -5.6262820 -29.9612160 0.1996019 -0.8302897 -0.5203634
16.7907583 -6.0166940 -28.6401156 0.2379454 -0.8501745 -0.4696651
18.1151766 -6.3732219 -27.3239837 0.3529592 -0.8149933 -0.4595712
19.3641800 -6.4728152 -25.9768246 0.4981562 -0.7607908 -0.4159781
20.5484029 -6.3232278 -24.5902608 0.6298709 -0.7064503 -0.3227857
21.6457779 -5.7972199 -23.1319008 0.7094991 -0.6759573 -0.1992306
22.6800955 -4.9432246 -21.5969244 0.7530989 -0.6480459 -0.1134836
23.6517816 -3.7121184 -19.9628585 0.8310134 -0.5536036 -0.0542201
24.5830795 -2.1500095 -18.2255657 0.9448318 -0.3176052 -0.0801233
24.2051975 6.3216327 -14.8528259 0.8945555 0.1829177 -0.4078132
25.1523055 8.6065452 -12.7742265 0.8365481 -0.1371520 -0.5304495
26.3759176 9.5835013 -10.9732551 0.8526673 -0.2022236 -0.4817302
27.6821099 10.1837006 -9.2489861 0.8285360 -0.2682065 -0.4915215
28.9896389 10.8654111 -7.4867249 0.8797034 -0.2489252 -0.4051644
30.2127166 12.2692754 -5.4951688 0.9990042 -0.0353053 -0.0272778
8.1830695 -3.3079866 -34.1235033 -0.0530385 -0.6200626 -0.7827575
9.8926070 -4.5930299 -32.8274075 0.0415342 -0.7513743 -0.6585678
11.3806424 -5.2993758 -31.5039562 0.0955862 -0.8479792 -0.5213392
12.7980772 -5.8357770 -30.1786587 0.0906049 -0.8807407 -0.4648511
14.2050594 -6.3778304 -28.8676864 0.1019550 -0.8792019 -0.4654130
15.5723859 -6.8282398 -27.5574833 0.1628952 -0.8589825 -0.4854011
16.9439840 -7.3292728 -26.2665046 0.2873707 -0.8252523 -0.4861859
18.2445532 -7.6138064 -24.9521004 0.4281018 -0.7832179 -0.4508864
19.4558406 -7.5847609 -23.5886159 0.5818784 -0.7452761 -0.3255472
20.5496447 -7.0882229 -22.1345552 0.6475031 -0.7426933 -0.1707231
21.5699037 -6.2402047 -20.5959222 0.7082179 -0.7052564 -0.0322613
22.5537901 -5.1502338 -18.9831875 0.7516353 -0.6592785 0.0199080
23.5435611 -3.9738775 -17.3229684 0.7544794 -0.6550906 -0.0402138
24.5362386 -2.6825536 -15.6050418 0.7881670 -0.6042831 -0.1167673
25.4882589 -1.0338396 -13.7630963 0.8538521 -0.4485498 -0.2640826
25.8184942 4.1879611 -10.9211579 0.9220452 0.0574683 -0.3827924
26.8204978 6.2153516 -8.8441091 0.8664329 -0.0283997 -0.4984851
28.0485238 7.1304093 -7.0422021 0.8569112 -0.0734464 -0.5102047
29.3368723 7.7826389 -5.2975999 0.9244261 -0.0863701 -0.3714520
30.4715159 9.6468704 -3.1500526 0.9884120 0.1113347 -0.1031809
5.0033443 -2.4510785 -34.2943761 -0.1351885 -0.5724531 -0.8087160
6.9794842 -4.3142073 -33.0242663 -0.0301418 -0.7536558 -0.6565778
8.6303693 -5.3873682 -31.7214704 0.0420378 -0.8408706 -0.5396012
10.0721337 -5.9275572 -30.3851217 0.0834397 -0.8897910 -0.4486755
11.4676653 -6.3666462 -29.0497231 0.0800358 -0.8937790 -0.4413088
12.8877497 -6.9128494 -27.7405401 0.0790117 -0.8714612 -0.4840583
14.3336386 -7.5819934 -26.4640939 0.1193344 -0.8294401 -0.5457000
15.7676362 -8.2626441 -25.2066531 0.2428084 -0.8024539 -0.5450796
17.1274915 -8.7406827 -23.9304890 0.4373688 -0.7834684 -0.4414588
18.3584421 -8.7935994 -22.5853313 0.5079336 -0.7664058 -0.3932247
19.4287145 -8.2469650 -21.1193423 0.6444325 -0.7432958 -0.1794941
20.4263416 -7.3656841 -19.5669233 0.6979612 -0.7158254 -0.0210734
21.3873634 -6.2507020 -17.9384045 0.7199063 -0.6934050 0.0304031
22.3897862 -5.2041691 -16.2979890 0.7201196 -0.6935648 -0.0198898
23.4333875 -4.2357673 -14.6507673 0.7205346 -0.6508623 -0.2391822
24.5552684 -3.5361834 -13.0507725 0.7057947 -0.6455446 -0.2917637
25.7809600 -3.2817626 -11.5577566 0.6672991 -0.5578338 -0.4934911
27.0907700 -3.4488891 -10.1818508 0.6703206 -0.2612794 -0.6945526
28.4619574 -3.9902392 -8.9247254 0.5125570 -0.2968446 -0.8057100
29.8138684 -4.4894589 -7.6680075 0.4840708 -0.3502099 -0.8018906
30.1461743 1.6723635 -4.2158213 0.9327256 0.1194420 -0.3402301
31.0438651 4.8021134 -1.6501625 0.9825053 0.0213844 -0.1850030
3.8861867 -3.7362658 -33.2000471 -0.1370128 -0.6187743 -0.7735282
5.6809502 -5.0669592 -31.9014572 -0.0233461 -0.7784468 -0.6272762
7.2829848 -5.9621858 -30.5881316 0.0561760 -0.8590095 -0.5088683
8.7626293 -6.5752312 -29.2624747 0.1076298 -0.8767403 -0.4687669
10.1665814 -7.0119237 -27.9282229 0.1094353 -0.8537932 -0.5089805
11.6234788 -7.6355728 -26.6335004 0.1008270 -0.8128226 -0.5737189
13.1357798 -8.4736323 -25.3900361 0.1054342 -0.7491293 -0.6539793
14.6566093 -9.4005449 -24.1838935 0.2447781 -0.7511733 -0.6130435
16.0461966 -9.9645369 -22.9327340 0.4480673 -0.7541857 -0.4800413
17.2750961 -10.0211768 -21.5932536 0.5160560 -0.7522413 -0.4096574
18.3225449 -9.4332084 -20.1162547 0.6655015 -0.7280667 -0.1643980
19.2731328 -8.4329604 -18.5299168 0.7116755 -0.7025069 -0.0014095
20.2085019 -7.2831676 -16.8817276 0.7131332 -0.6998956 0.0398395
21.2066382 -6.2812534 -15.2415297 0.6745793 -0.7337417 -0.0810301
22.2836278 -5.5181819 -13.6393362 0.6372404 -0.7268327 -0.2562009
23.4588757 -5.1188628 -12.1193511 0.5823304 -0.7077784 -0.3999264
24.7422335 -5.1902210 -10.7269456 0.4832591 -0.6359035 -0.6017370
26.1146307 -5.7184035 -9.4760692 0.4270525 -0.5016945 -0.7522824
27.5524266 -6.6616889 -8.3710772 0.3910408 -0.4192375 -0.8193455
28.9724778 -7.6281656 -7.2980792 0.4440118 -0.3576497 -0.8215475
30.3436541 -8.4327666 -6.1942338 0.5148322 -0.3676260 -0.7744669
31.6272842 -8.7847368 -4.9494055 0.8014103 -0.2959501 -0.5197645
32.7117738 -7.7797260 -3.2113546 0.9805267 -0.0211659 -0.1952419
0.4494673 -2.5317073 -33.3289891 -0.2777465 -0.4572736 -0.8448418
2.5636898 -4.4957346 -32.0618112 -0.1392901 -0.6558842 -0.7418990
4.3968847 -5.8688569 -30.7802440 0.0154884 -0.7832721 -0.6214860
5.9893791 -6.7019530 -29.4675541 0.1098963 -0.8208533 -0.5604664
7.4858062 -7.3305603 -28.1485640 0.1601975 -0.8080297 -0.5669434
8.9495662 -7.9095886 -26.8384929 0.1675643 -0.7664097 -0.6201116
10.4628861 -8.6680702 -25.5726668 0.1297873 -0.7141711 -0.6878334
12.0407623 -9.6686095 -24.3690762 0.1287642 -0.6793514 -0.7224275
13.5899536 -10.6528465 -23.1884121 0.2683505 -0.7032997 -0.6582990
14.9935905 -11.2496946 -21.9552113 0.4664943 -0.7315032 -0.4972787
16.2196419 -11.3096258 -20.6222841 0.5355795 -0.7332817 -0.4188705
17.2413563 -10.6773383 -19.1333579 0.6971362 -0.6981632 -0.1630006
18.1456262 -9.5755110 -17.5150383 0.7457770 -0.6661400 -0.0086063
19.0530138 -8.3900741 -15.8469015 0.7416699 -0.6704725 0.0198075
20.0486585 -7.4394582 -14.2105801 0.6820277 -0.7192247 -0.1324912
21.1388489 -6.7824821 -12.6316689 0.6060999 -0.7325397 -0.3098848
22.3414084 -6.5387493 -11.1566024 0.5277131 -0.7226400 -0.4464417
23.6490660 -6.7404264 -9.8113117 0.3967842 -0.6745738 -0.6225050
25.0316715 -7.3186248 -8.5912081 0.3059509 -0.6129166 -0.7285103
26.4868467 -8.3273112 -7.5288548 0.2368616 -0.5337334 -0.8118037
27.9514984 -9.5112974 -6.5531077 0.2687547 -0.5021384 -0.8219659
29.3621773 -10.5460006 -5.5547556 0.3435350 -0.4724560 -0.8116459
30.6837659 -11.1868567 -4.4373712 0.5711221 -0.4387576 -0.6937660
31.8918156 -11.1845162 -3.0899866 0.8079927 -0.4217408 -0.4114396
32.7610118 -8.7892596 -0.7938233 0.9904518 -0.0724988 0.1172571
-0.8208340 -3.4958002 -32.1871364 -0.2169196 -0.6176085 -0.7559799
1.3053886 -5.4190729 -30.9374025 -0.1352612 -0.6792564 -0.7213288
3.1843726 -6.8531575 -29.6784284 0.0086139 -0.7139826 -0.7001104
4.7827063 -7.6717553 -28.3739320 0.1469369 -0.7219048 -0.6762123
6.3330932 -8.4166840 -27.0799822 0.2111885 -0.7184453 -0.6627486
7.8685648 -9.1685262 -25.8066759 0.2314700 -0.6766072 -0.6990167
9.4252349 -10.0266466 -24.5716073 0.1899966 -0.6363726 -0.7476170
11.0450845 -11.1201729 -23.4031564 0.1736211 -0.6320053 -0.7552649
12.5828893 -12.0492012 -22.2303798 0.2943077 -0.6826243 -0.6688849
13.9873088 -12.6408987 -21.0098883 0.4762312 -0.7223138 -0.5014645
15.1855935 -12.6298024 -19.6682330 0.5514652 -0.7203404 -0.4207088
16.1947276 -12.0019826 -18.1783817 0.7228109 -0.6685370 -0.1749363
17.0658807 -10.8570369 -16.5412880 0.7939258 -0.6080118 -0.0018528
17.9566501 -9.6863567 -14.8673582 0.7583486 -0.6506262 -0.0399134
18.9325506 -8.7276086 -13.2219238 0.7061116 -0.6903600 -0.1575099
20.0200602 -8.1113410 -11.6514658 0.6525792 -0.6873443 -0.3189016
21.2317873 -7.9369724 -10.1998011 0.5363310 -0.6747074 -0.5070691
22.5537857 -8.2114359 -8.8865046 0.3980441 -0.6305017 -0.6663547
23.9590602 -8.8850688 -7.7127503 0.2775198 -0.5938737 -0.7551800
25.4256794 -9.9210150 -6.6815234 0.1985390 -0.5318603 -0.8232296
26.9104754 -11.1683084 -5.7530556 0.2016505 -0.5024734 -0.8407482
28.3522641 -12.3434760 -4.8305289 0.3461987 -0.5165054 -0.7831785
29.6882481 -13.0789886 -3.7699983 0.5296437 -0.5239903 -0.6670170
30.9189725 -13.2847318 -2.5184065 0.7039426 -0.5316653 -0.4709531
31.9839001 -12.4471888 -0.8443193 0.9191787 -0.3934701 0.0170827
-2.1375865 -4.3566746 -31.0343802 -0.2327663 -0.6276670 -0.7428687
0.1028438 -6.4704125 -29.8279595 -0.1473043 -0.6483066 -0.7469940
2.0598124 -8.0390815 -28.6047400 0.0075199 -0.6412797 -0.7672703
3.7643268 -9.0905848 -27.3472007 0.1536777 -0.6558513 -0.7390820
5.3817459 -9.9883882 -26.0929067 0.2633714 -0.6124098 -0.7453789
6.9614726 -10.8444351 -24.8551285 0.2657816 -0.6011035 -0.7536808
8.5264498 -11.7151024 -23.6427072 0.2455065 -0.5906755 -0.7686540
10.0729781 -12.5917672 -22.4545029 0.2631560 -0.6224294 -0.7371096
11.5799335 -13.4158370 -21.2782948 0.3229458 -0.6838755 -0.6542326
12.9520730 -13.9058406 -20.0484308 0.4776348 -0.7234074 -0.4985446
14.1618732 -13.9434906 -18.7233899 0.5503900 -0.7149236 -0.4312252
15.1790638 -13.3844862 -17.2488369 0.7291348 -0.6481027 -0.2198302
16.0523545 -12.3176373 -15.6246959 0.7912835 -0.6075770 -0.0687071
16.9336961 -11.1928386 -13.9562187 0.7970418 -0.5963660 -0.0952466
17.8883204 -10.2311768 -12.3056457 0.7453135 -0.6066640 -0.2765261
18.9692966 -9.6476214 -10.7450367 0.6868987 -0.6217562 -0.3762837
20.1746330 -9.4859137 -9.3033053 0.5618691 -0.6181588 -0.5497116
21.5056396 -9.8112875 -8.0188029 0.3857934 -0.5901082 -0.7091797
22.9175124 -10.5084419 -6.8710864 0.3324018 -0.5452856 -0.7695275
24.3932047 -11.5605058 -5.8688538 0.2064338 -0.5037269 -0.8388351
25.8965293 -12.8576762 -4.9854158 0.1939464 -0.4795758 -0.8557989
27.3368984 -13.9960935 -4.0752419 0.2838954 -0.5017113 -0.8171225
28.6872829 -14.8045451 -3.0639611 0.4778455 -0.5662882 -0.6715515
29.9289227 -15.1126422 -1.8684920 0.6510172 -0.6199190 -0.4380377
31.0010096 -14.4500670 -0.2695635 0.8990090 -0.4250672 -0.1053601
30.3500059 -2.5897492 6.2431891 0.9592114 -0.2813266 0.0277284
-5.9902120 -2.6700252 -31.0736930 -0.2236034 -0.5443803 -0.8084873
-3.5274008 -5.0677069 -29.8616874 -0.2542128 -0.6415827 -0.7237040
-1.2207636 -7.2484472 -28.6850681 -0.1918932 -0.6200258 -0.7607529
1.0194758 -9.3971475 -27.5619579 0.0149722 -0.5901087 -0.8071849
2.9070691 -10.8476951 -26.3856492 0.2005109 -0.5675998 -0.7985148
4.5437363 -11.7828378 -25.1595803 0.3067203 -0.5390468 -0.7844432
6.1337963 -12.6585427 -23.9474614 0.3160156 -0.5541207 -0.7701197
7.6539562 -13.4105310 -22.7341711 0.3064443 -0.5903631 -0.7467016
9.1616772 -14.1770210 -21.5440075 0.3104395 -0.6359324 -0.7065531
10.5946545 -14.7917632 -20.3401571 0.3466251 -0.6939306 -0.6311191
11.9357058 -15.1918429 -19.1015615 0.4609188 -0.7320023 -0.5017235
13.1609857 -15.2865241 -17.7968085 0.5361034 -0.7135235 -0.4510848
14.2003066 -14.8341118 -16.3496568 0.7147720 -0.6394557 -0.2831914
15.1036977 -13.9284768 -14.7643471 0.8020935 -0.5798136 -0.1430463
15.9832476 -12.8769203 -13.1123559 0.8252442 -0.5316483 -0.1905838
16.9203954 -11.9335700 -11.4653325 0.7781904 -0.5291785 -0.3382155
18.0030090 -11.4171251 -9.9290245 0.7382529 -0.5416251 -0.4020260
19.2022949 -11.2787611 -8.5043154 0.5745515 -0.5416024 -0.6136427
20.5118902 -11.5457770 -7.2157395 0.4300405 -0.5146981 -0.7417217
21.9462357 -12.3332070 -6.1207148 0.3381577 -0.4761735 -0.8117316
23.4141403 -13.3389620 -5.1278104 0.2407789 -0.4515323 -0.8591532
24.9084668 -14.5661007 -4.2469335 0.2213382 -0.4530371 -0.8635779
26.3498223 -15.6840263 -3.3552899 0.2950381 -0.4958633 -0.8167448
27.6993118 -16.4830213 -2.3622055 0.4183837 -0.5535981 -0.7200585
28.9237787 -16.7310162 -1.1563283 0.6370136 -0.6345037 -0.4377428
29.9682457 -16.0132586 0.4661173 0.7628757 -0.6172404 -0.1924446
29.4051230 -5.6397910 6.4674759 0.9240889 -0.3285769 0.1951842
30.4672000 -4.0761307 8.6500886 0.8812524 -0.4210657 -0.2147044
31.5389293 -2.3202380 10.9662958 0.9826737 -0.0426878 -0.1803611
-7.3539971 -3.5328949 -29.8888240 -0.2934195 -0.6066333 -0.7388511
-5.0259731 -5.5699446 -28.6561413 -0.2814943 -0.6640454 -0.6926794
-2.4226311 -8.2957543 -27.5769600 -0.2307957 -0.6327803 -0.7391363
0.0267255 -10.8294892 -26.5409983 0.0729201 -0.5124086 -0.8556402
2.1103333 -12.6818438 -25.4572278 0.2191403 -0.5049696 -0.8348552
3.7948164 -13.7193514 -24.2736466 0.3167078 -0.5289918 -0.7873144
5.3332739 -14.4707781 -23.0615957 0.3615309 -0.5491353 -0.7534891
6.7843977 -15.0537821 -21.8343051 0.3638344 -0.5980593 -0.7141076
8.2120488 -15.6132334 -20.6174292 0.3521797 -0.6514148 -0.6720329
9.5831033 -16.0612569 -19.3891525 0.3678708 -0.7067781 -0.6042647
10.9211499 -16.4500551 -18.1580765 0.4284333 -0.7196914 -0.5463416
12.1630693 -16.5995965 -16.8742231 0.5667677 -0.6949080 -0.4425803
13.2474483 -16.3099171 -15.4723934 0.6752458 -0.6468000 -0.3545318
14.2175331 -15.6618245 -13.9584014 0.7988338 -0.5410731 -0.2628771
15.1239326 -14.7706460 -12.3529256 0.8354457 -0.4628894 -0.2962496
16.0665706 -13.9263619 -10.7384092 0.8138727 -0.4320448 -0.3885210
17.1233738 -13.3924835 -9.2041174 0.7629965 -0.4589093 -0.4552348
18.3185673 -13.2912576 -7.8047502 0.6159116 -0.4499980 -0.6466488
19.6144219 -13.5433245 -6.5293141 0.4793904 -0.4343753 -0.7625634
21.0296753 -14.2672301 -5.4361500 0.3560392 -0.4147461 -0.8373898
22.4935607 -15.2515333 -4.4628114 0.3167412 -0.3927487 -0.8633791
23.9617067 -16.3517335 -3.5621745 0.2788969 -0.4195221 -0.8638390
25.3933474 -17.4086634 -2.6732972 0.3502656 -0.4847732 -0.8014418
26.7212499 -18.1062764 -1.6598921 0.4792610 -0.5617296 -0.6743654
27.9067922 -18.1934769 -0.3971960 0.6747665 -0.6453771 -0.3580204
28.8921934 -17.2575593 1.3262034 0.7476155 -0.6632625 -0.0339701
28.2358817 -7.1512584 7.3485360 0.6640622 -0.7272893 -0.1734117
29.3497133 -6.0536245 9.3231047 0.6969884 -0.7154602 -0.0482066
30.5528917 -5.3555079 11.1302458 0.7264094 -0.6672765 -0.1645340
31.7294382 -4.3581680 13.1076711 0.9389955 -0.3075155 -0.1540182
-8.8041976 -4.2344106 -28.6805086 -0.2740389 -0.6383589 -0.7193056
-6.4251116 -6.3009824 -27.4721868 -0.2883037 -0.6632029 -0.6906829
1.3065584 -14.4376474 -24.5369452 0.2270799 -0.4857298 -0.8440979
3.0401732 -15.5710545 -23.3964540 0.3219220 -0.5352567 -0.7809395
4.5503748 -16.2579012 -22.1931864 0.4103746 -0.5678358 -0.7135511
5.9251803 -16.6663913 -20.9464815 0.4115184 -0.6125151 -0.6748911
7.2603357 -17.0031781 -19.6939052 0.4064948 -0.6606298 -0.6311341
8.5968492 -17.3637717 -18.4564332 0.3993887 -0.6966941 -0.5959077
9.9012888 -17.6646261 -17.2129998 0.4296269 -0.7148536 -0.5517291
11.1580865 -17.8587311 -15.9481365 0.5210507 -0.7075258 -0.4774028
12.3021827 -17.7573648 -14.6026029 0.6505620 -0.6525000 -0.3886037
13.3461267 -17.3654986 -13.1658860 0.7535407 -0.5699803 -0.3275652
14.3048421 -16.6957745 -11.6301823 0.8074213 -0.4937168 -0.3229778
15.2801516 -16.0269411 -10.0766108 0.8095804 -0.4415154 -0.3868382
16.3572482 -15.6281062 -8.5980903 0.7617895 -0.4100544 -0.5015297
17.5345313 -15.5264016 -7.2153430 0.6386339 -0.3853045 -0.6660985
18.8260354 -15.8069614 -5.9721564 0.5219220 -0.3653719 -0.7707794
20.2004655 -16.4079247 -4.8602199 0.4148476 -0.3548523 -0.8378432
21.6535963 -17.3571956 -3.9037195 0.3473921 -0.3622155 -0.8649385
23.0894392 -18.3292844 -2.9824088 0.3560967 -0.3980153 -0.8454460
24.4754240 -19.1939297 -2.0416534 0.4043281 -0.4699845 -0.7846231
25.7519939 -19.6768707 -0.9563731 0.4675726 -0.5876534 -0.6603328
26.8834961 -19.5519432 0.3915742 0.7434981 -0.6483680 -0.1637970
27.7525024 -18.1449683 2.3419384 0.7220664 -0.6916393 0.0159760
26.9056088 -7.7600124 8.6472243 0.4795797 -0.8769880 -0.0299217
28.0870239 -7.0894719 10.4316349 0.5216299 -0.8469142 -0.1031434
29.3332614 -6.7032644 12.0898019 0.5075259 -0.8566889 -0.0922041
30.5738876 -6.2223275 13.8078397 0.5675960 -0.8106240 -0.1439571
31.7430652 -5.1727932 15.8431605 0.9043544 -0.4260805 -0.0244658
-12.8170585 -2.7102015 -28.6894336 -0.3110996 -0.5304536 -0.7885658
-10.3480205 -4.7762869 -27.4431652 -0.2559175 -0.6737220 -0.6932567
-8.1021869 -6.5080818 -26.2021245 -0.2843948 -0.6767039 -0.6791108
0.5495098 -16.2336262 -23.6455770 0.2314424 -0.5294686 -0.8161479
2.3240954 -17.4397003 -22.5467152 0.3476894 -0.5352022 -0.7698511
3.7099573 -17.8554633 -21.3053765 0.4476421 -0.5848641 -0.6764249
5.0262736 -18.1370364 -20.0437936 0.4641484 -0.6164132 -0.6360825
6.3470132 -18.4450210 -18.7965182 0.4440443 -0.6647058 -0.6008251
7.6271099 -18.6738029 -17.5368429 0.4279727 -0.6955060 -0.5771575
8.9122747 -18.9289878 -16.2907503 0.4324149 -0.7236928 -0.5378532
10.1600802 -19.1050711 -15.0286730 0.5012913 -0.7039531 -0.5031471
11.3478465 -19.1348084 -13.7269055 0.5855700 -0.6808430 -0.4399552
12.4392223 -18.9048665 -12.3434087 0.6750120 -0.6250884 -0.3919480
13.4837628 -18.5275417 -10.9047547 0.7328699 -0.5494007 -0.4013237
14.5251585 -18.1141237 -9.4433173 0.7596839 -0.4678065 -0.4517051
15.6313146 -17.8654496 -8.0297091 0.7312498 -0.4096276 -0.5454163
16.8191982 -17.8536977 -6.6975937 0.6331513 -0.3595871 -0.6854317
18.0894185 -18.1093049 -5.4684601 0.5384090 -0.3380581 -0.7719019
19.4695490 -18.7593034 -4.4041055 0.4532499 -0.3380185 -0.8248079
20.8658998 -19.5233468 -3.4047390 0.3989573 -0.3643334 -0.8414834
22.2512207 -20.3160946 -2.4385681 0.4032770 -0.4270033 -0.8093428
23.5730343 -20.9380701 -1.4187814 0.4679577 -0.5467861 -0.6942914
24.7914804 -21.2012631 -0.2528602 0.5636198 -0.7148908 -0.4138404
25.8425634 -20.7745504 1.2290538 0.6366853 -0.7406712 -0.2145648
24.5584707 -9.7300805 7.8421898 0.4431430 -0.8818419 0.1611802
25.5213242 -8.1548397 10.0622913 0.3766050 -0.9210153 0.0994961
26.7508841 -7.7408659 11.7337886 0.3227292 -0.9429231 -0.0821091
28.0319340 -7.5514245 13.2991256 0.3966502 -0.9091003 -0.1272999
29.3067349 -7.2985650 14.9036886 0.5218273 -0.8422416 -0.1353714
30.5316113 -6.6937943 16.7089284 0.6195267 -0.7849528 -0.0059804
31.6230046 -5.0813948 19.0993140 0.9003153 -0.3894142 0.1943939
-14.3926555 -3.2947226 -27.4287229 -0.2714402 -0.5661640 -0.7783178
-11.9508841 -5.2372542 -26.1827925 -0.2402520 -0.7163694 -0.6550525
-0.2010854 -17.9829735 -22.7672207 0.2204819 -0.5515356 -0.8044851
1.5084589 -19.0358288 -21.6617296 0.2845049 -0.5661121 -0.7736757
2.9132509 -19.4964991 -20.4462287 0.4796668 -0.5845796 -0.6543596
4.1951619 -19.7138962 -19.1829578 0.4855239 -0.6163411 -0.6199921
5.4469490 -19.8758230 -17.9111398 0.4943196 -0.6347787 -0.5938890
6.6994860 -20.0487656 -16.6468493 0.4857968 -0.6614125 -0.5714324
7.9638013 -20.2598979 -15.3984275 0.4790912 -0.6897431 -0.5428868
9.1803734 -20.3670007 -14.1242258 0.4929018 -0.7109037 -0.5016610
10.3750839 -20.4256414 -12.8375917 0.5566525 -0.6837912 -0.4717707
11.5162372 -20.3485262 -11.5075701 0.6053405 -0.6581114 -0.4477189
12.6128585 -20.1463622 -10.1322334 0.6464037 -0.5996912 -0.4717338
13.7417687 -20.0202124 -8.7786278 0.6744849 -0.5313918 -0.5125358
14.9104385 -19.9997931 -7.4609887 0.6593102 -0.4594797 -0.5951373
16.1209765 -20.1031826 -6.1906913 0.5949019 -0.3871329 -0.7044287
17.4093552 -20.4564951 -5.0233963 0.5308402 -0.3681579 -0.7633272
18.7408815 -20.9776293 -3.9354305 0.4714687 -0.3832819 -0.7942369
20.0784212 -21.5625543 -2.8891921 0.4365593 -0.4420350 -0.7835950
21.3965418 -22.1302309 -1.8514964 0.4395555 -0.5533936 -0.7074931
22.6427109 -22.4852835 -0.7325525 0.5124799 -0.6762563 -0.5291897
23.7787743 -22.4503905 0.5597442 0.5769094 -0.7902267 -0.2066816
24.7358440 -21.6884439 2.2045593 0.6118937 -0.7902030 -0.0341362
23.0438824 -9.5723330 9.5175005 0.3816050 -0.9099135 0.1625886
24.1075212 -8.4871350 11.5264567 0.3266780 -0.9384856 0.1119204
25.3538338 -8.1431047 13.1762800 0.2260467 -0.9709271 -0.0787616
26.6722226 -8.1204188 14.6624575 0.2749139 -0.9547689 -0.1133077
27.9704237 -7.9858553 16.2110752 0.3270680 -0.9397447 -0.0995311
29.2228046 -7.5671917 17.9243189 0.5176035 -0.8556200 -0.0010040
30.3820317 -6.5039008 20.0231489 0.7659734 -0.6058798 0.2149290
-15.8258425 -4.1525645 -26.1987909 -0.2600734 -0.6287232 -0.7328499
-13.4965719 -5.8322173 -24.9314229 -0.1983195 -0.7022670 -0.6837328
-0.9677236 -19.6447291 -21.8916916 0.2063752 -0.5591206 -0.8029903
0.7034653 -20.6054415 -20.7891776 0.3596790 -0.5558403 -0.7494482
2.0989261 -21.0493513 -19.5853063 0.4816299 -0.5860324 -0.6516123
3.3749015 -21.2648668 -18.3340018 0.4986563 -0.5831479 -0.6413115
4.6369454 -21.4619180 -17.0836223 0.5348844 -0.5924027 -0.6024598
5.8642190 -21.5925980 -15.8195122 0.5415758 -0.6117010 -0.5766433
7.0752647 -21.6936422 -14.5500537 0.5430938 -0.6412424 -0.5420861
8.2471261 -21.7083425 -13.2559926 0.5426947 -0.6723286 -0.5034448
9.4242947 -21.7368405 -11.9669265 0.5510248 -0.6842731 -0.4776421
10.5626110 -21.6698712 -10.6456752 0.5715056 -0.6597668 -0.4879438
11.7142732 -21.6330874 -9.3334178 0.5903531 -0.6009946 -0.5387845
12.8920378 -21.6635876 -8.0452706 0.5943382 -0.5578079 -0.5793207
14.1196137 -21.8338672 -6.8121302 0.5650094 -0.4738228 -0.6754675
15.3835105 -22.1203285 -5.6303717 0.5475001 -0.4256700 -0.7204504
16.6813195 -22.5287659 -4.5072599 0.5180426 -0.4191590 -0.7456122
17.9649929 -22.9251557 -3.3903735 0.4936855 -0.4588898 -0.7387116
19.2316528 -23.2988194 -2.2744767 0.5008408 -0.5336559 -0.6814469
20.4581579 -23.5695954 -1.1219794 0.5010477 -0.6569675 -0.5633337
21.6285704 -23.6684513 0.1039358 0.4999294 -0.7730973 -0.3903730
22.6845390 -23.3591398 1.5250259 0.5848645 -0.8107868 0.0236281
23.4960263 -22.0864300 3.4353566 0.6225300 -0.6914746 0.3664960
21.5858400 -9.7680547 11.0456610 0.4153965 -0.8934930 0.1706340
22.6786078 -8.8308087 13.0041832 0.3363516 -0.9402247 0.0533402
23.9431985 -8.5552055 14.6310700 0.2077231 -0.9751718 -0.0767535
25.2698516 -8.5401719 16.1211063 0.2024996 -0.9756729 -0.0840015
26.5807778 -8.4443660 17.6574763 0.2268661 -0.9716780 -0.0661335
27.8485469 -8.1046624 19.3385810 0.3619327 -0.9316726 0.0314791
29.0317473 -7.2308337 21.3477265 0.6463255 -0.7131257 0.2715052
-17.2655170 -5.0086168 -24.9647381 -0.1829384 -0.6370096 -0.7488340
-14.9573166 -6.5978404 -23.7002191 -0.1632544 -0.7134355 -0.6814380
-1.8993457 -20.9442896 -20.9521521 -0.0279491 -0.6071169 -0.7941208
-0.0992983 -22.1335664 -19.9248263 0.3644228 -0.5527551 -0.7494383
1.3545111 -22.6951826 -18.7669800 0.4806899 -0.5569513 -0.6773053
2.6528974 -22.9692405 -17.5457675 0.5406503 -0.5124541 -0.6671493
3.8809028 -23.1106973 -16.2938988 0.5754352 -0.5212993 -0.6301757
5.0950656 -23.2301281 -15.0393355 0.6074129 -0.5295191 -0.5921647
6.2456412 -23.2159426 -13.7457115 0.6086672 -0.5730691 -0.5487403
7.3940138 -23.1959637 -12.4497767 0.6105727 -0.5967586 -0.5206536
8.5240665 -23.1320228 -11.1380918 0.5998612 -0.6077205 -0.5204252
9.6636215 -23.0870916 -9.8314563 0.5848475 -0.5953178 -0.5509538
10.8566568 -23.1721523 -8.5721612 0.5690586 -0.5476782 -0.6133684
12.0957460 -23.3807912 -7.3632051 0.5576847 -0.4693067 -0.6846452
13.3707590 -23.6985736 -6.2040012 0.5408863 -0.4190789 -0.7292564
14.6596188 -24.0763237 -5.0786969 0.5413673 -0.3946833 -0.7423925
15.9358414 -24.4453030 -3.9602582 0.5626784 -0.4050349 -0.7206523
17.1761477 -24.7359877 -2.8174343 0.5973631 -0.4960896 -0.6301210
18.3548674 -24.8608028 -1.6067902 0.6035006 -0.5498057 -0.5774952
19.4845067 -24.8395450 -0.3306757 0.5705686 -0.6924235 -0.4415893
20.5575307 -24.6289055 1.0381383 0.5566886 -0.8137697 -0.1669629
21.5022505 -23.9561098 2.6441529 0.6171845 -0.7201143 0.3170469
21.9993879 -21.6030732 5.1335913 0.5449407 -0.6232874 0.5608498
20.1882597 -10.2768246 12.4322775 0.5138921 -0.8509946 0.1082730
21.2671155 -9.3153469 14.4252055 0.4204360 -0.9070405 0.0226087
22.5135562 -8.9545010 16.1107931 0.2606220 -0.9624837 -0.0755070
23.8288432 -8.8580302 17.6556215 0.1969505 -0.9787552 -0.0569975
25.1505131 -8.7801049 19.1923068 0.1940543 -0.9799694 -0.0447548
26.4282627 -8.4736268 20.8680570 0.2904612 -0.9548763 0.0619966
27.6178966 -7.6576304 22.8647440 0.4373327 -0.8620531 0.2561339
-18.5528174 -6.1236842 -23.7721423 -0.1596114 -0.6224387 -0.7662208
-16.3145643 -7.5505879 -22.4985600 -0.1221282 -0.6754742 -0.7271996
-0.8650154 -23.6882247 -19.0852500 0.3416691 -0.5415284 -0.7681206
0.6640664 -24.3930004 -17.9842768 0.4361444 -0.5363601 -0.7225620
2.0036320 -24.7601653 -16.8057479 0.5429080 -0.4672907 -0.6977752
3.2255839 -24.9088114 -15.5713934 0.5865075 -0.4728585 -0.6575818
4.4107026 -24.9890064 -14.3195413 0.6402691 -0.4560663 -0.6181093
5.5382638 -24.9510742 -13.0308009 0.6702542 -0.4511619 -0.5892471
6.6630620 -24.9050011 -11.7381773 0.6687217 -0.4796582 -0.5681014
7.7642074 -24.8030783 -10.4241469 0.6575291 -0.4744790 -0.5852565
8.9231805 -24.8291294 -9.1551239 0.6327493 -0.4464874 -0.6326748
10.1196643 -24.9463333 -7.9222574 0.6022247 -0.3680421 -0.7084282
11.3841033 -25.2382301 -6.7630667 0.5722826 -0.3296482 -0.7508826
12.7216093 -25.7347909 -5.6974863 0.5627944 -0.3077813 -0.7671591
14.0225262 -26.1685034 -4.6189274 0.5852074 -0.3105843 -0.7490458
15.2575775 -26.4532616 -3.4863752 0.6492763 -0.3759796 -0.6611200
16.4172985 -26.5463832 -2.2738748 0.7004371 -0.4600705 -0.5456400
17.4952541 -26.4076787 -0.9542278 0.6999327 -0.5860156 -0.4082645
18.5181122 -26.0911542 0.4560950 0.6819720 -0.6792231 -0.2712381
19.4563026 -25.4820605 2.0222757 0.6320465 -0.7742070 0.0334765
20.2520927 -24.3538396 3.8737325 0.6155283 -0.6970335 0.3677895
20.1787468 -20.1448965 7.3913202 0.7047009 -0.4815655 0.5210483
18.8752460 -11.1373188 13.6418848 0.6954670 -0.7130520 0.0887838
19.8927725 -9.9934102 15.7538107 0.5851904 -0.8108952 0.0011121
21.0979673 -9.4755291 17.5394803 0.3948974 -0.9155664 -0.0761203
22.3793565 -9.2196483 19.1859925 0.2808547 -0.9574517 -0.0663840
23.6957237 -9.0887656 20.7645833 0.2293849 -0.9726833 -0.0356332
24.9677451 -8.7361475 22.4833837 0.2892945 -0.9519593 0.1004104
26.1355352 -7.8237839 24.5647224 0.4417733 -0.8117306 0.3820076
-22.5347099 -5.1900550 -23.7684370 -0.2553113 -0.4588314 -0.8510523
-19.8441443 -7.2265334 -22.5798212 -0.1185648 -0.6140965 -0.7802742
-17.5929841 -8.6342213 -21.3221848 -0.1080517 -0.6636589 -0.7401903
-1.6033702 -25.2481402 -18.2662055 0.3110213 -0.5395022 -0.7824341
-0.0152996 -26.0566642 -17.2150891 0.3416324 -0.5323703 -0.7745122
1.3872682 -26.5517286 -16.0921892 0.5219438 -0.4830930 -0.7029906
2.6372857 -26.7740215 -14.8969370 0.5660001 -0.4344188 -0.7006599
3.8313987 -26.8958949 -13.6747631 0.6391761 -0.3871562 -0.6645028
4.9725089 -26.9153473 -12.4206566 0.6790298 -0.3455281 -0.6477105
6.0797578 -26.8644268 -11.1417609 0.6973317 -0.3055134 -0.6483750
7.2196866 -26.8815614 -9.8869117 0.6926845 -0.2647739 -0.6708822
8.3888842 -26.9650009 -8.6583546 0.6614002 -0.2319475 -0.7132672
9.6339023 -27.2275550 -7.5044389 0.6247102 -0.2102696 -0.7520132
10.9216568 -27.6072759 -6.4069938 0.5988782 -0.2041347 -0.7743862
12.2264393 -28.0524401 -5.3487139 0.6140799 -0.2153940 -0.7592834
13.4799943 -28.3973754 -4.2584706 0.6592946 -0.2891421 -0.6940659
14.6536537 -28.5573259 -3.0929117 0.7188706 -0.3608297 -0.5941607
15.7173399 -28.4319823 -1.7964377 0.7574401 -0.4584983 -0.4648266
16.6948286 -28.0569872 -0.3742220 0.7784661 -0.5573185 -0.2887674
17.5777346 -27.3801536 1.2107537 0.7656580 -0.6364215 -0.0934633
18.3568739 -26.3388137 3.0039281 0.6895334 -0.6800403 0.2491765
18.9790754 -24.7225633 5.1329745 0.6676650 -0.6162273 0.4177168
19.1910201 -21.6331125 8.1136566 0.7063968 -0.5028824 0.4981093
17.7258085 -12.5653970 14.5365500 0.8069024 -0.5893279 0.0400148
18.6116230 -11.0348928 16.8831318 0.6682402 -0.7427060 -0.0429277
19.7327666 -10.2353001 18.8425980 0.6205451 -0.7787868 -0.0917328
20.9559303 -9.7548480 20.6322202 0.4741404 -0.8768114 -0.0799533
22.2447433 -9.4942928 22.2996396 0.3574895 -0.9329734 -0.0419749
23.4893400 -9.0119297 24.1148393 0.3467656 -0.9346273 0.0789015
24.5766610 -7.7464168 26.4505258 0.4735813 -0.7191331 0.5084961
-23.7576784 -6.4475044 -22.5796046 -0.2695690 -0.5322919 -0.8024948
-20.9590772 -8.5969505 -21.4437232 -0.1320455 -0.6297201 -0.7655172
-2.3948063 -26.6702118 -17.4272080 0.2030946 -0.5599266 -0.8032650
-0.6825555 -27.6897873 -16.4597351 0.3234224 -0.5226385 -0.7888263
0.7794552 -28.2973140 -15.3910812 0.3956910 -0.5231189 -0.7548346
2.1173586 -28.7004764 -14.2722395 0.5278379 -0.4335366 -0.7303651
3.3487577 -28.9179197 -13.1007919 0.5864301 -0.3669531 -0.7221116
4.5567948 -29.1002367 -11.9229800 0.6364979 -0.3015521 -0.7098850
5.7318069 -29.2249623 -10.7288529 0.6584653 -0.2419466 -0.7126607
6.8933131 -29.3282318 -9.5299868 0.6633083 -0.1941496 -0.7227227
8.1069053 -29.5492783 -8.3817018 0.6551842 -0.1682594 -0.7364933
9.3495375 -29.8472765 -7.2720256 0.6422621 -0.1633128 -0.7488847
10.5934648 -30.1658699 -6.1798992 0.6429098 -0.1868654 -0.7427976
11.8182169 -30.4589031 -5.0855658 0.6738791 -0.2595390 -0.6917560
12.9526298 -30.5517149 -3.9072420 0.7143628 -0.3342912 -0.6147643
14.0320469 -30.5131355 -2.6690242 0.7468822 -0.4082835 -0.5248538
15.0153144 -30.2236485 -1.3065477 0.7793887 -0.5164159 -0.3547787
15.8971795 -29.6430923 0.2113721 0.8103075 -0.5287760 -0.2525820
16.6486051 -28.6596805 1.9554716 0.8191395 -0.5695518 0.0679799
17.2449171 -27.1574807 4.0051717 0.7217140 -0.6283715 0.2903071
17.7205705 -25.1789851 6.3596748 0.6277098 -0.6608148 0.4114660
18.1851274 -23.0066159 8.8806031 0.7575777 -0.5273071 0.3847380
16.9113105 -15.0306009 14.8167793 0.9733954 -0.2058677 0.1005978
17.5331985 -12.7540825 17.6090446 0.8633265 -0.5000930 -0.0676343
18.5145830 -11.5379363 19.8239799 0.7074690 -0.6862582 -0.1689299
19.6357710 -10.7222011 21.8254228 0.6111305 -0.7827376 -0.1176494
20.8423978 -10.1562190 23.6917380 0.5545033 -0.8321121 -0.0107532
22.0214208 -9.4171367 25.6869297 0.6181778 -0.7354288 0.2774900
22.7607235 -6.6943585 29.0215500 0.5271420 -0.2274152 0.8187818
-25.0674626 -7.5644492 -21.3685996 -0.3699091 -0.5985481 -0.7105684
-22.2710311 -9.6511521 -20.2492543 -0.1389072 -0.7256340 -0.6739140
-3.2061921 -28.0224408 -16.5835201 -0.0641546 -0.5860660 -0.8077196
-1.3927850 -29.1978452 -15.6875946 0.1312231 -0.5953547 -0.7926747
0.1604664 -29.9644514 -14.6904351 0.3400019 -0.5687456 -0.7489507
1.5484040 -30.4660213 -13.6239067 0.3593861 -0.5593280 -0.7469898
2.8529289 -30.8362184 -12.5246315 0.4893686 -0.4632853 -0.7388404
4.1334018 -31.1789334 -11.4258625 0.5440009 -0.4006033 -0.7372788
5.3874604 -31.4873950 -10.3237535 0.5802359 -0.3134036 -0.7517343
6.6125079 -31.7536414 -9.2135812 0.6071543 -0.2737862 -0.7459254
7.8210191 -32.0000950 -8.1028975 0.6217495 -0.2559605 -0.7402106
9.0038299 -32.2055641 -6.9816391 0.6340468 -0.2687639 -0.7250866
10.1817363 -32.4121122 -5.8668771 0.6437732 -0.3475624 -0.6817304
11.3013394 -32.4992844 -4.7028701 0.6726664 -0.4011587 -0.6217649
12.3568683 -32.4427320 -3.4727538 0.7142310 -0.4616374 -0.5260846
13.3510505 -32.2354341 -2.1667728 0.7430174 -0.5503936 -0.3807782
14.2611820 -31.8064508 -0.7423563 0.7749885 -0.5498019 -0.3116259
15.0553810 -31.0518138 0.8644381 0.8081280 -0.5882719 -0.0294147
15.6861548 -29.8117437 2.7535529 0.7912736 -0.5974040 0.1303631
16.0787130 -27.8285274 5.0882078 0.7295086 -0.5881733 0.3490980
16.4436021 -25.6184687 7.6090490 0.5709985 -0.6977256 0.4325964
17.0437643 -23.9329457 9.8902103 0.6826494 -0.5840595 0.4391631
16.8959194 -19.8096193 13.6701600 0.9445605 -0.2062451 0.2554768
16.7884775 -15.4691865 17.7028241 0.9711024 -0.2368123 -0.0296657
17.5562775 -13.6775876 20.2722385 0.9126916 -0.3887455 -0.1259801
18.5346694 -12.4588435 22.5282489 0.7681681 -0.6137750 -0.1822032
19.5938302 -11.4192543 24.7028555 0.7859651 -0.6162170 0.0503537
20.6262280 -10.1714596 27.0468284 0.7382635 -0.6041903 0.2998684
-23.7775109 -10.4189532 -18.9905717 -0.3892604 -0.7004300 -0.5982258
-4.1965245 -29.0477559 -15.6511110 -0.1848433 -0.6512292 -0.7360255
-2.2910925 -30.3461963 -14.8160196 -0.0287997 -0.6503754 -0.7590668
-0.6562346 -31.2369097 -13.8779926 0.1019338 -0.6692799 -0.7359850
0.8348167 -31.9152440 -12.8895439 0.2590535 -0.6600536 -0.7051387
2.2344292 -32.4606730 -11.8711523 0.3506905 -0.6048479 -0.7149652
3.5649309 -32.9047954 -10.8292814 0.3903807 -0.5669685 -0.7253617
4.8682030 -33.3195404 -9.7886110 0.4506874 -0.5297096 -0.7185322
6.1021219 -33.6205333 -8.7123879 0.4961344 -0.5059575 -0.7055903
7.3077399 -33.8808671 -7.6273693 0.5391350 -0.4972979 -0.6797266
8.4854913 -34.0981155 -6.5306648 0.5715737 -0.5089919 -0.6436075
9.5910538 -34.1750292 -5.3752018 0.6082200 -0.5340166 -0.5872774
10.6499455 -34.1549551 -4.1755419 0.6511657 -0.5704810 -0.5005344
11.6556937 -34.0147894 -2.9159818 0.6908176 -0.6064645 -0.3936646
12.5889427 -33.6988981 -1.5629076 0.7063849 -0.6281196 -0.3263221
13.4332804 -33.1516428 -0.0794209 0.7623607 -0.6388155 -0.1035425
14.1403421 -32.2316729 1.6207876 0.7537881 -0.6168395 0.2265225
14.6228463 -30.6798466 3.6974965 0.7497758 -0.5740147 0.3291555
14.6873574 -27.9221324 6.5045288 0.5884357 -0.6123844 0.5279477
15.0042337 -25.6525397 9.1086012 0.4371303 -0.7851060 0.4387774
15.7066842 -24.3018651 11.2308540 0.4720222 -0.7946874 0.3816635
16.2366262 -22.3404212 13.7666824 0.8296277 -0.4682031 0.3041444
16.3560227 -18.9679041 17.2446386 0.9487687 -0.2778943 0.1503752
16.8942690 -16.6433037 20.1499053 0.9633734 -0.2606265 -0.0631307
17.6759066 -14.9223516 22.7276323 0.9201299 -0.3849410 -0.0719815
18.5481847 -13.3579447 25.2510804 0.8562872 -0.5146704 0.0434347
19.3552549 -11.4055561 28.0866862 0.8180164 -0.4755478 0.3235791
-25.6539785 -10.6753705 -17.6012509 -0.5167914 -0.7139551 -0.4724349
-23.0715209 -12.3955836 -16.4918563 -0.4968539 -0.6790872 -0.5403487
-5.5090542 -29.5456428 -14.5494289 -0.2909227 -0.7392139 -0.6073934
-3.4122846 -31.1098700 -13.8208519 -0.1895043 -0.7773936 -0.5997895
-1.6331473 -32.2128416 -12.9721449 -0.0415796 -0.7782453 -0.6265823
-0.0572778 -33.0185514 -12.0444208 0.1123379 -0.7466113 -0.6557070
1.4309649 -33.7085816 -11.0954450 0.0980600 -0.7269993 -0.6796001
2.8105868 -34.2369792 -10.1013837 0.2039920 -0.6915919 -0.6928838
4.1417464 -34.7023306 -9.0965256 0.2661396 -0.7258219 -0.6343124
5.4003799 -35.0545639 -8.0562241 0.3428636 -0.7085488 -0.6167683
6.6126495 -35.3354496 -6.9942572 0.4037174 -0.7043883 -0.5838231
7.7455263 -35.4738264 -5.8742935 0.4626212 -0.7101250 -0.5307581
8.8552929 -35.5726862 -4.7394676 0.5201734 -0.7222151 -0.4558783
9.8742118 -35.4868861 -3.5160904 0.5694769 -0.7378837 -0.3622482
10.8283533 -35.2566302 -2.2164325 0.6383612 -0.7162431 -0.2819411
11.7222986 -34.8792305 -0.8326274 0.6696632 -0.7312566 -0.1296726
12.4917921 -34.1943334 0.7285245 0.6846858 -0.7245830 0.0786432
13.1081241 -33.1051763 2.5344757 0.7202256 -0.6465725 0.2514340
13.3571103 -31.0508785 4.9229907 0.6035556 -0.5992274 0.5259726
12.9556580 -27.2217014 8.4108020 0.4459802 -0.7181308 0.5342188
13.4131556 -25.3625936 10.8310368 0.3895958 -0.8274127 0.4044790
14.1994112 -24.2563447 12.8438687 0.4752171 -0.8138418 0.3344102
15.0002555 -23.1081803 14.9160291 0.6200428 -0.7263562 0.2965698
15.6467134 -21.4219207 17.3691607 0.8546259 -0.4910797 0.1686869
16.2470648 -19.4598454 20.0543678 0.9381220 -0.3431022 0.0469901
16.9144379 -17.5437278 22.7670167 0.9365260 -0.3453970 0.0601668
17.5915308 -15.4910423 25.6308397 0.9031417 -0.4159639 0.1063443
18.1470919 -12.8310816 28.9833313 0.7543416 -0.5026694 0.4222467
-25.0640827 -12.4687455 -15.0445273 -0.6223403 -0.6926282 -0.3646351
-4.8787587 -31.3292249 -12.6270793 -0.4457311 -0.7840658 -0.4319312
-2.9586677 -32.6135028 -11.8546057 -0.3028484 -0.8357377 -0.4580669
-1.2410382 -33.6197599 -11.0118275 -0.1776190 -0.8316904 -0.5260632
0.3361309 -34.4340021 -10.1211962 -0.0562975 -0.7916869 -0.6083275
1.8234848 -35.1305937 -9.2054255 0.0758600 -0.7769469 -0.6249790
3.2059079 -35.6742194 -8.2437734 0.1861143 -0.7627849 -0.6192905
4.4991424 -36.0822538 -7.2371914 0.2436937 -0.7793442 -0.5772660
5.7298306 -36.3941598 -6.1979934 0.3289226 -0.7789352 -0.5339194
6.8652414 -36.5398370 -5.0880445 0.3985844 -0.7885576 -0.4683026
7.9501644 -36.5940597 -3.9370191 0.4678999 -0.7966999 -0.3825427
8.9509210 -36.4813774 -2.7021442 0.5265360 -0.8060775 -0.2701832
9.8782941 -36.2101373 -1.3802898 0.5157537 -0.8503660 -0.1042869
10.7253076 -35.7517400 0.0512076 0.6139805 -0.7889335 -0.0247385
11.4308983 -34.9553067 1.6848817 0.5965543 -0.7883700 0.1503186
11.9047830 -33.5853133 3.6707915 0.5658901 -0.6799361 0.4663211
11.6378562 -30.3978591 6.7654945 0.4633603 -0.5757204 0.6736790
11.1563150 -26.4849611 10.3931100 0.3825307 -0.8252891 0.4154133
11.8133839 -25.1483423 12.5475910 0.3775657 -0.8908026 0.2528138
12.7178197 -24.3570468 14.3973337 0.4658199 -0.8629490 0.1957827
13.7016049 -23.7208366 16.1704391 0.5695799 -0.8078660 0.1514304
14.5850569 -22.7586521 18.1786637 0.7289495 -0.6623236 0.1730900
15.3431248 -21.3602450 20.5114243 0.7863690 -0.6088605 0.1044636
16.0102040 -19.5757868 23.1536487 0.8440833 -0.5172809 0.1412228
16.5718184 -17.3111741 26.1893539 0.8557409 -0.4604572 0.2359802
16.8150024 -13.8080463 30.1883191 0.6889019 -0.4658289 0.5553535
-24.5565208 -14.1329917 -12.4950541 -0.5881866 -0.7292911 -0.3495297
-5.0389851 -31.8529427 -10.2685291 -0.5263707 -0.8348562 -0.1610869
-2.9581751 -33.3768028 -9.6287803 -0.4345533 -0.8623351 -0.2598876
-1.0921748 -34.6162379 -8.9150654 -0.4147710 -0.8596737 -0.2982048
0.5243746 -35.4935327 -8.0803771 -0.2396169 -0.8933921 -0.3800452
2.0261405 -36.2146813 -7.2015788 -0.1965010 -0.9099476 -0.3652160
3.3802817 -36.7106423 -6.2392119 -0.0415085 -0.9286987 -0.3685048
4.6318180 -37.0459863 -5.2142421 0.0890258 -0.9311810 -0.3535200
5.7946673 -37.2342969 -4.1261256 0.1910833 -0.9365227 -0.2939599
6.8830988 -37.2912289 -2.9762084 0.2781135 -0.9391888 -0.2014377
7.8701915 -37.1539090 -1.7252298 0.3553217 -0.9309902 -0.0836881
8.7656440 -36.8258421 -0.3662454 0.3705945 -0.9282187 0.0327069
9.5586992 -36.2688705 1.1307901 0.4496977 -0.8825209 0.1375823
10.1633660 -35.2812918 2.8922433 0.4628074 -0.7793706 0.4223633
10.3590790 -33.3443249 5.2438047 0.4151105 -0.6604249 0.6257173
9.2740274 -28.4137749 9.4658117 0.4013392 -0.7060125 0.5835009
9.5861504 -26.4072799 12.0236495 0.4379547 -0.8431087 0.3120311
10.3828370 -25.4286412 13.9891856 0.4372392 -0.8839697 0.1655882
11.3668115 -24.8469914 15.7261074 0.4195307 -0.9034869 0.0877803
12.3987070 -24.3473752 17.4260605 0.4637748 -0.8837390 0.0625968
13.3668463 -23.6427011 19.2808482 0.5785216 -0.8040378 0.1372443
14.2004316 -22.5152335 21.4514245 0.6675551 -0.7074825 0.2320317
14.8823218 -20.8666012 24.0270453 0.7388086 -0.6278646 0.2448426
15.3222891 -18.3652312 27.2724063 0.5994058 -0.6251188 0.4999392
-24.1299337 -15.6732108 -9.9441432 -0.5448310 -0.7631047 -0.3476066
-21.6872476 -17.1867363 -8.9474199 -0.4087582 -0.8265292 -0.3869964
-11.8100611 -25.9058067 -7.8786620 -0.6389139 -0.7573586 -0.1348961
-9.7122143 -27.2357367 -7.0569155 -0.4727977 -0.8595990 0.1937829
0.3084132 -35.8756385 -5.7381387 -0.4165160 -0.9059850 -0.0755354
1.8984404 -36.7307383 -4.9410833 -0.3227374 -0.9304703 -0.1733946
3.2370114 -37.1884877 -3.9713941 -0.1387420 -0.9751383 -0.1727890
4.4639536 -37.4693553 -2.9245136 -0.0720798 -0.9954269 -0.0626883
5.5682528 -37.5397819 -1.7744723 -0.0077006 -0.9994364 0.0326734
6.5549157 -37.3928381 -0.5077957 0.0976364 -0.9840409 0.1487640
7.4216586 -37.0067950 0.8977313 0.1648105 -0.9654796 0.2017094
8.1188509 -36.2637356 2.5211821 0.2241841 -0.8988525 0.3765708
8.5270875 -34.8903732 4.5409373 0.2163198 -0.7957680 0.5656492
7.7745107 -31.0048144 8.1300767 0.2215842 -0.7139116 0.6642519
7.5322907 -27.9897412 11.2958859 0.4459712 -0.7861746 0.4278307
8.2052515 -26.8255982 13.3721638 0.4756708 -0.8512134 0.2217499
9.0745594 -26.0384365 15.2376218 0.4655917 -0.8780880 0.1103896
10.0572868 -25.4686683 16.9817206 0.4313236 -0.9004237 0.0565432
11.0730190 -24.9413270 18.7142444 0.4599664 -0.8842703 0.0806042
12.0380886 -24.2487697 20.5785885 0.4645365 -0.8675338 0.1777381
12.8674857 -23.1497838 22.7549047 0.5065081 -0.8175606 0.2739419
13.4850396 -21.3910361 25.4470040 0.5417081 -0.6801834 0.4938652
13.4404851 -17.6204718 29.6939104 0.3572090 -0.6567038 0.6641851
-23.7733651 -17.1075500 -7.3880490 -0.5142998 -0.8056101 -0.2940886
-21.3229171 -18.6258719 -6.4470781 -0.4654995 -0.8310301 -0.3044652
-14.6938010 -24.3498125 -5.8061820 -0.4987109 -0.8214729 -0.2765317
-12.6904601 -25.4498314 -4.8704413 -0.3844231 -0.9231281 0.0073036
-11.2716333 -25.7137349 -3.6007079 -0.2945474 -0.9522029 0.0809409
-10.0380681 -25.7033211 -2.2141447 -0.1240063 -0.9917181 0.0334320
2.5499425 -36.7327750 -1.1860039 -0.4386767 -0.8714397 0.2194439
3.7473415 -36.9282329 -0.0823102 -0.3681052 -0.8900725 0.2688297
4.7796183 -36.8339819 1.1787860 -0.2704519 -0.8834486 0.3825889
5.5858264 -36.3140713 2.6895750 -0.0567726 -0.9084201 0.4141856
6.0407227 -35.0952339 4.6325150 -0.1372618 -0.8003830 0.5835634
5.6136053 -32.0784243 7.7113585 -0.1831746 -0.7726965 0.6077723
5.5023826 -29.5297471 10.5905371 0.2953824 -0.8432624 0.4490632
6.0787219 -28.2615204 12.7269696 0.4626731 -0.8610686 0.2109371
6.8720541 -27.3818387 14.6473298 0.4777099 -0.8624136 0.1674395
7.7741102 -26.6878408 16.4700275 0.4599859 -0.8813192 0.1081176
8.7218966 -26.0539320 18.2728697 0.4259576 -0.8983695 0.1072023
9.6855639 -25.4159227 20.0982363 0.4018993 -0.8956571 0.1904606
10.5687745 -24.5395879 22.1147848 0.4143650 -0.8754515 0.2487695
11.2900787 -23.1953605 24.5022711 0.3751207 -0.8127308 0.4458174
11.3564844 -20.0492889 28.2832483 0.2326403 -0.7108038 0.6638045
-23.7698065 -18.0559097 -4.6678278 -0.5238888 -0.8154030 -0.2462893
-21.1059950 -19.8529381 -3.8887343 -0.5645322 -0.7768511 -0.2789370
-14.8614888 -24.9799822 -3.1760823 -0.3341090 -0.9162997 -0.2208305
-13.3253543 -25.3793254 -1.9510759 -0.1697967 -0.9803659 -0.1002584
-12.0294973 -25.4362451 -0.5767220 0.0082642 -0.9981047 -0.0609810
-10.7872829 -25.4137052 0.8346432 0.0785995 -0.9956443 -0.0501458
-9.5457846 -25.3890748 2.2477565 0.1148163 -0.9767089 -0.1812650
-8.2103555 -25.5132354 3.5843047 0.0272681 -0.9722440 -0.2323748
-6.7505154 -25.8461791 4.8051810 -0.0862869 -0.9456877 -0.3134157
-5.0884682 -26.5325776 5.8208617 -0.2074601 -0.8999605 -0.3834467
-3.2840290 -27.4956001 6.6582799 -0.4207024 -0.8523168 -0.3107501
-1.2785367 -28.8585200 7.2326553 -0.4485571 -0.8926953 -0.0434924
0.7378103 -30.3098223 7.7114835 -0.4406821 -0.8727602 0.2099734
2.1237375 -30.6740310 8.8119383 -0.1889271 -0.9314332 0.3110287
3.0907864 -30.2647859 10.3877134 0.0347925 -0.9504558 0.3089064
3.8963660 -29.5192077 12.1932166 0.3258084 -0.9358165 0.1345223
4.7001094 -28.7280784 14.0521505 0.4631163 -0.8602139 0.2134370
5.5385347 -27.9625638 15.9185264 0.4668321 -0.8710154 0.1529705
6.4229023 -27.2488044 17.7730534 0.4353212 -0.8838659 0.1711038
7.3035628 -26.4831703 19.6866279 0.4062276 -0.8947864 0.1853008
8.1450982 -25.5809631 21.7229450 0.3387999 -0.8884735 0.3095634
8.8313280 -24.2585601 24.0979923 0.3481062 -0.8703698 0.3482505
-24.2925358 -18.3001190 -1.6441309 -0.6003618 -0.7873482 -0.1401730
-17.0221180 -24.6055257 -1.4785885 -0.3781608 -0.8805159 -0.2858078
-15.1545064 -25.4377440 -0.4451449 -0.1729274 -0.9597602 -0.2212612
-13.6966148 -25.7101455 0.8362673 -0.0029366 -0.9832412 -0.1822858
-12.3716618 -25.7971985 2.2028029 0.1540226 -0.9662176 -0.2066412
-11.1259404 -25.7681828 3.6271201 0.1700362 -0.9599205 -0.2228011
-9.8094482 -25.8472877 4.9942311 0.1020354 -0.9527021 -0.2862649
-8.3615723 -26.1375747 6.2419798 0.0177301 -0.9241804 -0.3815445
-6.6851323 -26.8106800 7.2626599 -0.1059987 -0.8792382 -0.4644400
-4.9114069 -27.6763913 8.1493643 -0.2240671 -0.8347847 -0.5029199
-3.0474806 -28.7366088 8.8918096 -0.1783630 -0.8758370 -0.4484375
-1.2981998 -29.6500929 9.6911685 -0.2528192 -0.9576678 -0.1376766
0.1970633 -30.1576403 10.7183294 -0.1479072 -0.9889470 -0.0103578
1.4380460 -30.2271879 12.0133444 0.1573992 -0.9844196 0.0783808
2.4261154 -29.8263144 13.6185328 0.2892544 -0.9544315 0.0734327
3.3146539 -29.2118339 15.3816208 0.4162444 -0.8969177 0.1492624
4.1405898 -28.4388500 17.2744116 0.4217524 -0.8775014 0.2282898
4.9414870 -27.5701395 19.2597610 0.3925867 -0.8894185 0.2341164
5.6545080 -26.4653026 21.4443305 0.3419431 -0.8803983 0.3285937
6.1187959 -24.7547144 24.1140169 0.0511871 -0.7322366 0.6791240
-16.9747016 -25.5592433 1.0599364 -0.2899071 -0.9070913 -0.3051873
-15.2652040 -26.1611651 2.1821557 -0.0502593 -0.9631456 -0.2642434
-13.8354044 -26.3863186 3.4824156 0.1008963 -0.9583287 -0.2672566
-12.5141460 -26.4618398 4.8562136 0.1904433 -0.9392875 -0.2854300
-11.1942004 -26.5386572 6.2268645 0.1522472 -0.9262579 -0.3447711
-9.7237506 -26.8491986 7.4614431 0.0768842 -0.9142320 -0.3978299
-8.0696195 -27.4611249 8.5089800 -0.0448704 -0.8764036 -0.4794825
-6.3051591 -28.2777904 9.4133559 -0.1648074 -0.8385029 -0.5193760
-4.4678549 -29.2522216 10.1938551 -0.1370645 -0.8715030 -0.4708459
-2.7537335 -30.0669187 11.0447090 -0.0548261 -0.9443660 -0.3242946
-1.2807422 -30.5072819 12.1134064 0.0558904 -0.9749320 -0.2153693
-0.0321033 -30.5744765 13.4171237 0.1664087 -0.9825122 -0.0835344
1.0034128 -30.2597566 14.9797376 0.2410930 -0.9673524 0.0781248
1.8687063 -29.6122446 16.7852026 0.3603192 -0.9195173 0.1570287
2.6081960 -28.6893388 18.8084102 0.3596219 -0.8856052 0.2938971
3.1824375 -27.3904324 21.1361629 0.3201110 -0.8748760 0.3634844
-19.0522798 -25.3833108 2.7454488 -0.5062237 -0.7823081 -0.3629486
-16.8879861 -26.5662923 3.5693249 -0.1490142 -0.9375421 -0.3143398
-15.2531248 -27.0596786 4.7286337 0.0210824 -0.9573887 -0.2880320
-13.8797198 -27.2017540 6.0680292 0.1341742 -0.9400736 -0.3134627
-12.5229714 -27.3256506 7.4132595 0.1518076 -0.9181481 -0.3660034
-11.0410478 -27.6404877 8.6417520 0.0777230 -0.8885806 -0.4520881
-9.4138397 -28.1893254 9.7181350 0.0053618 -0.8707831 -0.4916382
-7.6566123 -28.9642874 10.6359701 -0.1562199 -0.8590479 -0.4874752
-5.8610787 -29.8356082 11.4671940 -0.1294790 -0.8728909 -0.4704217
