-23.1512670 15.0206321 -4.2497734 -0.7613171 0.6480450 0.0208306
-23.8248824 14.4893543 -6.2049856 -0.6939091 0.7172902 0.0631273
-24.6137637 14.0866300 -8.0596342 -0.6132341 0.7842634 0.0942065
-25.4088900 13.6753665 -9.9395745 -0.5984254 0.8011783 -0.0006784
-26.0427046 13.0275023 -12.0726568 -0.5591690 0.7970082 -0.2282718
-26.2017042 11.6930327 -14.9313830 -0.4936459 0.7496539 -0.4408318
-25.6825183 9.3386555 -18.9043167 -0.4540852 0.7133851 -0.5337493
-2.0304451 16.2630895 31.0225925 -0.2213372 0.4977982 0.8385743
-3.7215143 16.8497013 29.8838214 -0.4545721 0.5892084 0.6679803
-4.9311856 17.0093298 28.5708482 -0.6420834 0.5681356 0.5147337
-5.7861558 16.8422171 27.1062616 -0.7604856 0.5675122 0.3155813
-6.4352905 16.4752975 25.5341466 -0.8089927 0.5544319 0.1952849
-7.0122784 16.0282708 23.9050327 -0.8087081 0.5627980 0.1710252
-7.5995702 15.5779396 22.2557941 -0.7690083 0.5921917 0.2406973
-8.3771846 15.3021637 20.6864410 -0.6523620 0.6224429 0.4324219
-9.4386583 15.3027566 19.2669541 -0.5247123 0.6163205 0.5872189
-10.6951083 15.5018639 17.9670512 -0.4482053 0.6054017 0.6577239
-12.1349330 15.8967731 16.7970600 -0.3457319 0.5880472 0.7312113
-13.7117809 16.4480619 15.7434464 -0.2721511 0.5785284 0.7689204
-15.3497320 17.0821746 14.7668202 -0.2345485 0.5359941 0.8109854
-17.0650129 17.8208123 13.8870626 -0.2600665 0.5185531 0.8145355
-18.6633791 18.4547344 12.9630494 -0.3488667 0.5123008 0.7847547
-20.0717310 18.8965432 11.9250811 -0.5312354 0.4266632 0.7319477
-21.2506621 19.0912935 10.7205740 -0.6991218 0.3707840 0.6113492
-22.2221076 19.0514740 9.3441100 -0.8464570 0.2894361 0.4469198
-22.9486766 18.7202747 7.7368328 -0.9448584 0.2122656 0.2493712
-23.3407556 17.9738374 5.7812538 -0.9820809 0.1787259 0.0597844
-23.4220411 16.8181325 3.4571033 -0.9626999 0.2332375 -0.1371466
-23.4084915 15.4999187 0.9483635 -0.9027146 0.3992161 -0.1604145
-23.6499184 14.4555152 -1.3767593 -0.8141709 0.5752053 -0.0791493
-24.1886018 13.7559763 -3.4386472 -0.7533920 0.6560994 0.0439779
-24.9155829 13.2776286 -5.3285435 -0.6669446 0.7320406 0.1389297
-25.7791965 12.9641694 -7.0852286 -0.6102817 0.7797315 0.1399107
-26.6754895 12.6824050 -8.8248946 -0.5944639 0.8004164 0.0771123
-27.4629032 12.2347470 -10.7368421 -0.6024088 0.7943190 -0.0784913
-27.9325198 11.3093113 -13.1393141 -0.5724150 0.7643807 -0.2967543
-27.8921653 9.5910458 -16.3790358 -0.5365118 0.7025737 -0.4674883
-26.8128139 6.2286181 -21.3798976 -0.5311185 0.5674830 -0.6291869
-2.4670777 14.4976637 31.5259291 -0.2893675 0.1210842 0.9495289
-4.1967609 15.1325586 30.3886121 -0.6167219 0.2011513 0.7610468
-5.4539224 15.3364559 29.0845930 -0.8061649 0.2030131 0.5557732
-6.3376236 15.1863454 27.6240446 -0.8668386 0.2253049 0.4447792
-7.0074602 14.8227855 26.0539798 -0.9048504 0.2600818 0.3370507
-7.6040674 14.3757749 24.4272062 -0.8911632 0.3226092 0.3189851
-8.2672320 13.9821903 22.8104145 -0.8200417 0.4314824 0.3759716
-9.1455760 13.7961964 21.2905206 -0.7074645 0.5341602 0.4627815
-10.2999014 13.8903748 19.9207131 -0.5543136 0.6184337 0.5570245
-11.6163191 14.1579108 18.6553746 -0.3864856 0.6456272 0.6586307
-13.0480389 14.5569951 17.4796089 -0.2877237 0.6415487 0.7110769
-14.6545242 15.1585997 16.4454124 -0.2440022 0.6208583 0.7449818
-16.2711508 15.7908386 15.4544308 -0.2375906 0.5867516 0.7741274
-17.8971339 16.4543649 14.5089250 -0.2782432 0.5528788 0.7854334
-19.4150615 17.0167053 13.5204305 -0.4604006 0.4859514 0.7428880
-20.7183219 17.3488124 12.3923832 -0.6451207 0.4196071 0.6385523
-21.7888964 17.4172993 11.0870050 -0.7799810 0.3075419 0.5450207
-22.6521229 17.2385474 9.6007604 -0.8760783 0.2935944 0.3824776
-23.2988785 16.7879156 7.9001807 -0.9541043 0.2062321 0.2171482
-23.7696507 16.1008186 5.9967418 -0.9687933 0.2433584 0.0470774
-24.0207402 15.1083389 3.8211646 -0.9391267 0.3376772 -0.0633653
-24.2472730 14.0456214 1.5482504 -0.8789158 0.4684059 -0.0900163
-24.6373541 13.1569643 -0.6208400 -0.7992233 0.6010211 -0.0039703
-25.2542897 12.5380785 -2.5933964 -0.7287750 0.6796994 0.0830409
-26.0357698 12.1198127 -4.4142311 -0.6471229 0.7455493 0.1593365
-26.9280240 11.8392439 -6.1280380 -0.5983112 0.7810218 0.1789656
-27.8744429 11.6240281 -7.7931748 -0.6055160 0.7839483 0.1370238
-28.7087187 11.2348958 -9.6306438 -0.6376546 0.7701113 -0.0180308
-29.3174086 10.4904273 -11.8249461 -0.6699269 0.7240532 -0.1641491
-29.5717237 9.1691937 -14.6142115 -0.6318455 0.6933229 -0.3465178
-29.2324136 6.8560818 -18.4477933 -0.6301024 0.5458971 -0.5522385
6.9033666 5.5791602 32.3761165 -0.0291078 0.5041011 0.8631540
-3.8701355 12.6162189 30.5817381 -0.5717227 -0.1970074 0.7964429
-5.1850921 12.8659291 29.2706599 -0.7801222 -0.0928181 0.6187037
-6.1405012 12.7654886 27.8127742 -0.8426855 -0.1712296 0.5104523
-6.8795802 12.4438708 26.2477335 -0.8289731 -0.1588240 0.5362635
-7.7165075 12.2125555 24.7137029 -0.8227697 -0.0689371 0.5641788
-8.6510626 12.0753943 23.2178821 -0.7687081 0.3016593 0.5639942
-9.8148157 12.1753945 21.8406590 -0.5906417 0.4093086 0.6954199
-11.1730542 12.4864588 20.5816780 -0.3866705 0.6151523 0.6870761
-12.6000817 12.8819113 19.3819709 -0.3249808 0.6758649 0.6615089
-14.1007328 13.3711609 18.2519384 -0.2602026 0.6869525 0.6785211
-15.6693799 13.9524850 17.1960191 -0.2401527 0.6666565 0.7056173
-17.2510548 14.5677259 16.1834758 -0.2767151 0.5964716 0.7534257
-18.7661041 15.1261477 15.1581864 -0.3718579 0.5171564 0.7708897
-20.1628983 15.5638706 14.0746910 -0.5492274 0.4437614 0.7081137
-21.2806786 15.6814477 12.7904641 -0.6882809 0.3824971 0.6164133
-22.2507556 15.6223522 11.3870768 -0.8306794 0.2641746 0.4900852
-23.0301817 15.3235198 9.8089192 -0.8992547 0.2184100 0.3789961
-23.6959791 14.8693288 8.1042355 -0.9497835 0.2047239 0.2366421
-24.2249469 14.2210431 6.2346165 -0.9484175 0.2785899 0.1513004
-24.7008683 13.4777902 4.2657040 -0.9273470 0.3718014 0.0423227
-25.1080326 12.6129064 2.1707125 -0.8637929 0.5037009 -0.0121365
-25.6332792 11.8748760 0.1451910 -0.7933014 0.6080020 0.0317262
-26.3102053 11.3183617 -1.7578056 -0.7315897 0.6695977 0.1281232
-27.1275518 10.9386153 -3.5317300 -0.6793937 0.7039517 0.2070658
-28.0352578 10.6739927 -5.2201328 -0.6763188 0.6982128 0.2347162
-28.9764199 10.4473265 -6.8852402 -0.6730718 0.7204320 0.1671887
-29.8193617 10.0609046 -8.7053645 -0.7545088 0.6507077 0.0854163
-30.4868892 9.3838047 -10.8119566 -0.7636745 0.6388731 -0.0929651
-30.8717662 8.2251386 -13.4037837 -0.7664536 0.5728647 -0.2904735
-30.7844744 6.2418164 -16.8424059 -0.7468702 0.5123214 -0.4239242
8.5833659 2.6620810 34.2317052 -0.0064017 0.4551314 0.8904013
6.1107033 3.8945069 33.0625395 -0.3732178 0.3335156 0.8657227
4.3019147 4.5180850 31.7253194 -0.4942435 0.0732636 0.8662308
2.8241906 4.8339354 30.2971770 -0.7342727 -0.1645450 0.6586110
1.6380926 4.8682294 28.7707597 -0.7366945 -0.3503072 0.5784169
0.5304895 4.8240175 27.2131718 -0.6838591 -0.4120023 0.6021552
-1.0676896 5.2808439 25.8684151 -0.5836012 -0.4795421 0.6553236
-6.7218361 8.8286163 24.4600442 -0.4668820 -0.2339119 0.8528226
-8.7254333 9.8011674 23.4674442 -0.3541757 0.1316419 0.9258671
-10.5363300 10.5939992 22.4208775 -0.2983970 0.5555791 0.7760741
-12.1940255 11.2422744 21.3285000 -0.1937421 0.6982804 0.6891071
-13.7679763 11.8170433 20.2206402 -0.1932966 0.7626821 0.6172134
-15.2899450 12.3509673 19.1114619 -0.2246010 0.7615531 0.6079402
-16.7408573 12.8198958 17.9845931 -0.2809261 0.7234291 0.6306590
-18.1666071 13.2746867 16.8668546 -0.3548658 0.6288972 0.6917793
-19.5571507 13.7025675 15.7495289 -0.5015796 0.5456000 0.6713706
-20.7632471 13.9199530 14.5138381 -0.7270870 0.3824345 0.5701652
-21.7483238 13.8702020 13.1104707 -0.8308858 0.2695037 0.4868229
-22.5796763 13.6239517 11.5719276 -0.8746107 0.2279201 0.4279119
-23.3498358 13.2895413 9.9623408 -0.9006605 0.2107078 0.3800171
-24.0862761 12.8980604 8.2988830 -0.9184278 0.2816888 0.2777440
-24.7647362 12.4137849 6.5520498 -0.9169820 0.3262786 0.2295351
-25.3882757 11.8354536 4.7155637 -0.8965415 0.4206580 0.1387808
-25.9701489 11.1758797 2.7939197 -0.8666956 0.4905882 0.0903439
-26.5820616 10.5318456 0.8590561 -0.7892670 0.6046034 0.1072954
-27.3057951 10.0227458 -0.9913535 -0.7723573 0.6110414 0.1734720
-28.1373968 9.6512944 -2.7473180 -0.7435596 0.6283481 0.2286870
-29.0197595 9.3401352 -4.4666112 -0.7653083 0.5664174 0.3057361
-29.9416239 9.0758753 -6.1574010 -0.7906353 0.5521025 0.2647235
-30.7718446 8.6545898 -7.9979271 -0.8235820 0.5428931 0.1642550
-31.4570793 7.9791865 -10.0852181 -0.8755231 0.4831667 -0.0030379
-31.8797347 6.8370931 -12.6306275 -0.8886433 0.4311781 -0.1562005
-31.8894184 4.9395211 -15.9338078 -0.8793066 0.3598224 -0.3120060
7.9281715 0.7974160 34.8923109 -0.2084559 0.3228304 0.9232154
5.8176795 1.7056404 33.5946821 -0.5289615 0.2058928 0.8232909
4.4229496 1.9250572 32.0984373 -0.7287596 0.1113333 0.6756585
3.3538080 1.8211025 30.4949981 -0.8601034 -0.0370985 0.5087689
2.5165558 1.4759886 28.7970164 -0.8516103 -0.1098542 0.5125349
1.6331204 1.1686505 27.1006656 -0.8373068 -0.1289147 0.5313175
0.4551419 1.1631330 25.5168584 -0.7045366 -0.1066569 0.7016071
-1.1836620 1.6513305 24.1451992 -0.5071418 -0.1369635 0.8509102
-11.5590624 9.3362949 23.1669211 -0.0117394 0.6511699 0.7588412
-13.4424543 10.2643411 22.2060946 0.0224020 0.7841054 0.6202233
-15.1112591 10.9735176 21.1649846 -0.0573972 0.8539783 0.5171331
-16.5518761 11.4369547 20.0167023 -0.2074508 0.8419440 0.4980908
-17.8647900 11.7626855 18.8081391 -0.3565404 0.7835790 0.5088054
-19.0903476 11.9928282 17.5560103 -0.4968620 0.6339108 0.5926932
-20.2452140 12.1430626 16.2643402 -0.6519391 0.5046520 0.5659522
-21.2884749 12.1575127 14.8940962 -0.7900977 0.3470737 0.5052578
-22.1465623 11.9343196 13.3727641 -0.8628184 0.2656375 0.4300944
-22.8998744 11.5655779 11.7473504 -0.8999636 0.2061219 0.3841605
-23.7213339 11.2735884 10.1595843 -0.8863662 0.2341978 0.3993824
-24.5540458 10.9854617 8.5632568 -0.8801724 0.2932755 0.3732105
-25.3462286 10.6297202 6.9076917 -0.8904619 0.3553949 0.2842042
-26.0854559 10.1847887 5.1733106 -0.8836733 0.4149516 0.2166487
-26.7909830 9.6729874 3.3718139 -0.8300407 0.5304310 0.1722653
-27.4747199 9.1076784 1.5096941 -0.8359566 0.5187522 0.1790888
-28.2035608 8.5859103 -0.3396828 -0.8039703 0.5642007 0.1879075
-29.0101738 8.1606019 -2.1312212 -0.8287045 0.4881202 0.2738384
-29.8704942 7.8003997 -3.8853448 -0.8365963 0.4451370 0.3193113
-30.7479117 7.4510129 -5.6441806 -0.8497492 0.4295401 0.3056494
-31.5434403 6.9508424 -7.5464702 -0.9235778 0.3196286 0.2117585
-32.2066717 6.2045722 -9.6847093 -0.9424369 0.3296105 0.0562986
-32.6267701 5.0037555 -12.2603782 -0.9686229 0.2420523 -0.0563951
-32.5257175 2.8246708 -15.7803063 -0.9376422 0.1995398 -0.2846242
7.8879035 -1.7036044 35.3814808 -0.3317835 0.1721153 0.9275215
5.7976344 -0.8026227 34.0503405 -0.6158360 0.1123151 0.7798278
4.4213036 -0.6100918 32.5236106 -0.7844895 0.1072858 0.6107913
3.4349832 -0.8188174 30.8669205 -0.8801726 0.0731257 0.4689870
2.5816547 -1.1745029 29.1494713 -0.8728242 0.1174311 0.4736960
1.7048827 -1.5157822 27.4240724 -0.8473829 0.1347427 0.5136016
0.5295550 -1.5423525 25.8104012 -0.7073909 0.1447374 0.6918448
-13.0118803 8.5833788 24.1464241 0.1922657 0.7428687 0.6412331
-15.0522631 9.7356655 23.2897389 0.1009976 0.8345105 0.5416565
-16.5741236 10.3050695 22.1800946 -0.1419024 0.8898107 0.4337058
-17.8676051 10.6153836 20.9552006 -0.2695534 0.8647228 0.4237870
-18.9675483 10.6964791 19.6169729 -0.4574821 0.7971248 0.3940839
-19.9850882 10.6763693 18.2246322 -0.6404786 0.6434135 0.4192926
-20.9331424 10.5662444 16.7790756 -0.7328478 0.5235547 0.4345396
-21.8306484 10.3859511 15.2872028 -0.8433106 0.3686238 0.3910801
-22.5940484 10.0206306 13.6742875 -0.8872479 0.3020910 0.3486148
-23.3441749 9.6234332 12.0273829 -0.8843611 0.2783750 0.3747169
-24.1792677 9.3280065 10.4320836 -0.8648160 0.2833107 0.4145219
-25.0818257 9.1156666 8.8814577 -0.8364214 0.3364055 0.4327015
-25.9635840 8.8648101 7.2961250 -0.8545051 0.3625240 0.3720179
-26.7863188 8.5171996 5.6326606 -0.8441295 0.4476672 0.2950247
-27.5728749 8.1009485 3.9061576 -0.8779948 0.4248066 0.2206001
-28.2727184 7.5347020 2.0521282 -0.8893722 0.4231897 0.1729959
-28.9737538 6.9456296 0.1594664 -0.8797765 0.4099594 0.2406795
-29.7111061 6.3881039 -1.7305335 -0.9138291 0.3066057 0.2662880
-30.4975385 5.8850082 -3.5977942 -0.9296453 0.2007220 0.3089827
-31.3107782 5.4030235 -5.4666198 -0.9309249 0.1644024 0.3261146
-32.0591295 4.7874375 -7.4655319 -0.9563949 0.1572610 0.2461256
-32.6870508 3.9316824 -9.6932398 -0.9833186 0.1427103 0.1127751
-32.9823059 2.4385345 -12.5107144 -0.9948446 0.0986145 -0.0236502
5.8859838 -3.4849427 34.4840243 -0.6128442 0.0457656 0.7888774
4.4404135 -3.2303580 32.9525851 -0.7793583 0.0901470 0.6200598
3.3913700 -3.3944877 31.2934886 -0.8363503 0.1038544 0.5382679
2.4001408 -3.6267119 29.6047185 -0.8364699 0.1896167 0.5141630
1.3629948 -3.8153514 27.9230357 -0.7658792 0.2887696 0.5744921
0.1211389 -3.7801145 26.3193647 -0.5717242 0.4191884 0.7052748
-14.7316897 8.1880734 25.2674197 0.2180606 0.7557652 0.6174695
-16.6367152 9.2281897 24.3554708 -0.0258947 0.8361729 0.5478543
-18.0142283 9.6510851 23.1791950 -0.2116776 0.8791410 0.4269704
-19.1311932 9.7607215 21.8591719 -0.4493510 0.8181319 0.3588090
-20.0954499 9.6786859 20.4422287 -0.5505920 0.7596689 0.3460514
-20.8959530 9.3804754 18.9046515 -0.7724504 0.5512565 0.3153358
-21.6685581 9.0343554 17.3291256 -0.8218856 0.4769894 0.3114244
-22.3979802 8.6170846 15.6995820 -0.8741208 0.3696997 0.3150158
-23.1012681 8.1481020 14.0237639 -0.9037859 0.3037429 0.3015150
-23.8376951 7.7074181 12.3481043 -0.9007974 0.2361458 0.3644163
-24.6778631 7.3973983 10.7389984 -0.8637982 0.2320623 0.4472134
-25.6415134 7.2544943 9.2273024 -0.8428966 0.2564832 0.4730134
-26.5532666 7.0285080 7.6544976 -0.8514477 0.2984743 0.4312191
-27.4477797 6.7668084 6.0486541 -0.8754759 0.3294030 0.3536037
-28.2218371 6.3075258 4.2935244 -0.9033534 0.3382829 0.2636613
-28.9262646 5.7182312 2.4272956 -0.9449451 0.2569464 0.2026261
-29.5319027 4.9432995 0.4015912 -0.9575765 0.1864944 0.2196979
-30.1340323 4.1274932 -1.6835987 -0.9507718 0.1093741 0.2899487
-30.8361748 3.4427611 -3.6966106 -0.9400447 0.0240924 0.3401994
-31.5572533 2.7582308 -5.7346023 -0.9469098 -0.0354044 0.3195440
-32.2135621 1.9257950 -7.9182782 -0.9643288 -0.0503730 0.2598702
-32.6800118 0.7077177 -10.4537745 -0.9858894 -0.1025445 0.1323127
-32.5474798 -1.6857477 -14.0344380 -0.9765832 -0.2083593 -0.0535882
6.6711952 -6.9861767 34.7230907 -0.4383874 -0.2199713 0.8714523
4.7178140 -6.1991046 33.3098960 -0.6627837 -0.0528211 0.7469455
3.2841416 -5.9641361 31.7521065 -0.7813487 0.0843313 0.6183709
2.0939705 -5.9958389 30.1144292 -0.7410985 0.1619710 0.6515661
0.8697608 -5.9899642 28.4883750 -0.6088207 0.3620350 0.7058810
-16.2924395 7.6568635 26.2981309 0.1018448 0.7560295 0.6465656
-17.9700804 8.4581500 25.2747907 -0.2232269 0.7898207 0.5712732
-19.2476862 8.7762157 24.0516647 -0.4185745 0.7852988 0.4561810
-20.2477829 8.7449837 22.6685540 -0.5454906 0.7579813 0.3576372
-21.0766725 8.4863693 21.1686866 -0.8151948 0.5287890 0.2363043
-21.7573584 8.0190718 19.5497459 -0.8775344 0.4346015 0.2026202
-22.3590377 7.4263583 17.8458056 -0.9231148 0.3249558 0.2055791
-22.9286130 6.7666056 16.0829041 -0.9678648 0.1451252 0.2053687
-23.5066252 6.0935741 14.2885631 -0.9461794 0.1315543 0.2956993
-24.1776102 5.5288577 12.5345921 -0.9259821 0.0649183 0.3719447
-25.0484206 5.2365650 10.9275779 -0.8700004 0.1061579 0.4814872
-26.0342883 5.1054679 9.4117684 -0.8397093 0.1497969 0.5219667
-27.0426868 5.0033036 7.9098191 -0.8548445 0.1840826 0.4851335
-27.9544215 4.7449044 6.2996356 -0.8974836 0.1625140 0.4100150
-28.7467301 4.2837748 4.5409883 -0.9453052 0.1373201 0.2958739
-29.3369059 3.4712055 2.5184344 -0.9811757 0.1014524 0.1643218
-29.7354230 2.3011616 0.2088180 -0.9798770 0.0158218 0.1989741
-30.1610798 1.1237272 -2.1482711 -0.9651430 -0.0936454 0.2443961
-30.6665844 0.0307239 -4.4837431 -0.9364881 -0.1967275 0.2903246
-31.1830422 -1.0954051 -6.8841638 -0.9191011 -0.2628654 0.2935217
-31.5843126 -2.4889968 -9.5370426 -0.9262796 -0.2909785 0.2394526
3.7286104 -9.2251544 32.0330136 -0.6308379 -0.1752224 0.7558708
1.9807173 -8.6388194 30.5610774 -0.6814366 -0.0301656 0.7312552
-17.5805810 6.8292765 27.1790335 -0.1175429 0.6353010 0.7632668
-19.0718019 7.4229164 26.0605407 -0.4701833 0.6092041 0.6385907
-20.2285968 7.5965576 24.7712287 -0.6841161 0.5551525 0.4730653
-21.1242577 7.4262673 23.3250478 -0.8282577 0.4679173 0.3082897
-21.8557866 7.0258652 21.7597808 -0.8968704 0.3629278 0.2527980
-22.3655746 6.3028218 20.0163413 -0.9782616 0.1256505 0.1649735
-22.7323830 5.3505550 18.1268793 -0.9884967 -0.0341661 0.1473331
-22.9686581 4.1740007 16.0820318 -0.9690837 -0.0675559 0.2373035
-23.3580565 3.1766890 14.0961980 -0.9064816 -0.2140205 0.3639868
-24.0947103 2.6598056 12.3528767 -0.8686424 -0.0784377 0.4891911
-25.0891032 2.5155062 10.8130728 -0.8201602 -0.0236143 0.5716464
-26.2079409 2.5589179 9.3830213 -0.8028794 0.0066464 0.5961045
-27.2641474 2.5041805 7.8923285 -0.8522909 0.0441857 0.5211985
-28.2074505 2.2633342 6.2788282 -0.9087498 0.0443066 0.4149828
-28.9092657 1.6107356 4.3825402 -0.9559972 -0.0197909 0.2927076
-29.3344166 0.4591571 2.1222188 -0.9837857 -0.0677884 0.1660436
-29.5814445 -1.0544749 -0.4324443 -0.9815740 -0.1062024 0.1588506
-29.8367409 -2.6244151 -3.0809129 -0.9865933 -0.1101657 0.1204043
-30.0043107 -4.4293169 -5.9576113 -0.9589527 -0.2086370 0.1920425
-29.8561342 -6.9113359 -9.4079991 -0.9190339 -0.3738139 0.1250598
-18.4808509 5.5234156 27.8511799 -0.3963819 0.4613702 0.7937373
-19.8437771 5.9644515 26.6591494 -0.5636856 0.4669247 0.6813516
-20.8739299 5.9685811 25.2899197 -0.8367712 0.2528287 0.4856866
-21.6205256 5.5805056 23.7413722 -0.9371576 0.1377253 0.3205736
-21.9917959 4.6496765 21.9218817 -0.9712437 -0.1683444 0.1683623
-18.8798197 -1.3103994 17.5990223 -0.7963025 -0.4734560 0.3764860
-19.7416187 -1.6900457 15.9086839 -0.7124891 -0.4433012 0.5439148
-21.1608458 -1.2545987 14.6335508 -0.7159106 -0.4028925 0.5702189
-22.4168736 -1.0501643 13.2477005 -0.7218164 -0.2789860 0.6333624
-23.7154394 -0.7720128 11.9099145 -0.7216634 -0.1439776 0.6771059
-24.9791789 -0.5378688 10.5560255 -0.7672921 -0.0752433 0.6368684
-26.1876974 -0.3833719 9.1625681 -0.7878537 -0.0348150 0.6148776
-27.3098633 -0.3648795 7.6909424 -0.8436515 -0.0160721 0.5366505
-28.2171733 -0.7075237 5.9924807 -0.9143983 -0.0597491 0.4003822
-28.8415097 -1.5525606 3.9572045 -0.9780414 -0.0382918 0.2048628
-29.2384744 -2.8364161 1.6013140 -0.9885544 0.0055562 0.1507623
-29.5502525 -4.3337308 -0.9444637 -0.9930516 0.0174193 0.1163832
-29.6427301 -6.3069801 -3.8744191 -0.9984690 -0.0517317 0.0195841
-29.0211188 -9.7253033 -7.9064689 -0.9620100 -0.2468696 -0.1165853
-17.3188127 2.8470090 29.3891088 -0.1327416 0.3716388 0.9188385
-19.0484545 3.7672999 28.3473925 -0.6440170 0.2100872 0.7355988
-20.2133160 3.9414391 27.0325091 -0.8225991 0.0636156 0.5650519
-20.8490325 3.3796020 25.4109063 -0.9516782 -0.1677562 0.2572283
-17.1586865 -3.3781564 21.0354933 -0.9640997 -0.2585355 -0.0605899
-17.0087846 -5.2383625 18.6754556 -0.9773747 -0.0861583 0.1931720
-17.7438435 -5.8580565 16.8416526 -0.8858033 -0.0369822 0.4625849
-18.9244042 -5.8293285 15.3056978 -0.7530381 -0.0073322 0.6579361
-20.4111084 -5.3286574 14.0106919 -0.6271083 0.0153273 0.7787812
-22.0459018 -4.5759189 12.8649615 -0.6111492 -0.0134663 0.7914009
-23.5524561 -3.9982826 11.6493875 -0.6429742 0.0563599 0.7638113
-24.9686538 -3.5447153 10.3836485 -0.7084366 0.0240903 0.7053632
-26.2569554 -3.2857729 9.0207402 -0.7731532 0.0553271 0.6318015
-27.3859077 -3.2877481 7.5114034 -0.8524025 0.0606147 0.5193610
-28.2820482 -3.6960512 5.7535567 -0.9373343 0.0449733 0.3455168
-28.9459424 -4.5372918 3.7098240 -0.9775218 0.0640346 0.2008747
-29.4371938 -5.7328587 1.4088509 -0.9906663 0.0865057 0.1053426
-29.7458758 -7.3265370 -1.1963742 -0.9984940 0.0547313 0.0037693
-29.4612241 -10.1331733 -4.6790977 -0.9843922 -0.1107961 -0.1367343
-15.8191385 -0.3226913 30.8412696 0.0671747 0.4968809 0.8652150
-17.8754989 1.0272827 29.8953621 -0.3892591 0.2941157 0.8729108
-19.2005512 1.4027352 28.6274380 -0.8263424 0.0852563 0.5566774
-19.6359419 0.5267534 26.8800183 -0.9644033 -0.2325731 0.1258416
-17.5918690 -3.9688817 23.6205598 -0.9523435 -0.1627914 -0.2579549
-16.8134586 -6.7651185 20.9354701 -0.9979837 0.0102224 -0.0626428
-17.0862876 -8.0883357 18.8093740 -0.9617244 0.1519349 0.2280393
-17.9797163 -8.5129695 17.0518793 -0.8482947 0.2417494 0.4711192
-19.1961604 -8.4506616 15.5118572 -0.7092439 0.2610570 0.6548452
-20.6516980 -8.0058817 14.1621586 -0.5986145 0.1935139 0.7773115
-22.2570075 -7.3003267 12.9598981 -0.5456926 0.1537761 0.8237552
-23.8045245 -6.6616392 11.7456996 -0.5909997 0.1596959 0.7907064
-25.2732819 -6.1295208 10.4946688 -0.6760171 0.1359441 0.7242376
-26.5302578 -5.9407514 9.0689731 -0.7986519 0.1193042 0.5898488
-27.6297060 -6.0222456 7.4935521 -0.8787448 0.0876830 0.4691687
-28.5023337 -6.5174723 5.6698040 -0.9418176 0.0627068 0.3302234
-29.1831704 -7.3903902 3.5989875 -0.9766769 0.0671780 0.2039345
-29.6767627 -8.6592200 1.2507720 -0.9930213 -0.0165019 0.1167751
-29.7391385 -10.8254765 -1.7171818 -0.9900308 -0.1311694 -0.0513180
-14.1925924 -3.7157031 32.3322843 0.1002724 0.5069185 0.8561420
-16.6891848 -1.7697087 31.5094663 -0.2916568 0.4050077 0.8665478
-18.2201389 -1.1230891 30.3004816 -0.6878902 0.2047567 0.6963345
-19.0138288 -1.5158460 28.7357067 -0.9721080 -0.0862204 0.2181102
-18.5476992 -3.7704331 26.4524542 -0.9709447 -0.1040340 -0.2155072
-17.4062351 -7.1165384 23.6636188 -0.9661921 -0.0077531 -0.2577065
-17.0982529 -9.3201450 21.2351005 -0.9816612 0.1906340 -0.0002173
-17.6333382 -10.3011053 19.2573827 -0.9055993 0.3338438 0.2616070
-18.6106678 -10.6216096 17.5407467 -0.7753448 0.4297840 0.4627376
-19.8281770 -10.5680594 15.9857009 -0.6820692 0.4158517 0.6015388
-21.2373060 -10.1976086 14.5833774 -0.5741133 0.3268263 0.7507186
-22.7711367 -9.6029314 13.3036279 -0.5352160 0.3040863 0.7880834
-24.3048370 -8.9837535 12.0556215 -0.5716797 0.2650993 0.7764693
-25.7436559 -8.5043481 10.7540817 -0.6900248 0.2223913 0.6887727
-26.9236220 -8.4672981 9.2278546 -0.8512996 0.1143414 0.5120694
-27.9109028 -8.7814406 7.5061418 -0.9176687 0.0498811 0.3942031
-28.6478887 -9.5788710 5.4955847 -0.9550834 -0.0477256 0.2924687
-29.1865827 -10.7941777 3.2110989 -0.9656522 -0.1532196 0.2098560
-28.9865246 -13.5180283 -0.0317125 -0.9121305 -0.4035299 0.0719828
-15.2730070 -4.9293622 33.0988387 -0.0364430 0.3593592 0.9324874
-17.2004672 -3.7366842 32.0152199 -0.5697720 0.2595163 0.7797507
-18.4168510 -3.5399800 30.6382594 -0.8471950 0.1536817 0.5085691
-18.8441030 -4.5089169 28.8605351 -0.9980315 -0.0199376 0.0594612
-18.3348798 -6.9304334 26.5208308 -0.9732931 -0.0535147 -0.2232413
-17.5666519 -9.8417377 23.9159390 -0.9830846 0.0743412 -0.1673860
-17.6884732 -11.4662583 21.7282501 -0.9556275 0.2803093 0.0905692
-18.3989643 -12.2116772 19.8514461 -0.8593704 0.4040788 0.3133735
-19.4196606 -12.4804777 18.1551300 -0.7710278 0.4276637 0.4718261
-20.5865020 -12.5170626 16.5534073 -0.6838486 0.4034387 0.6079377
-21.9273259 -12.2597746 15.0860195 -0.5907856 0.3763756 0.7136622
-23.4284065 -11.7138980 13.7646836 -0.5555927 0.3237876 0.7658187
-24.8817720 -11.2295188 12.4303147 -0.6242291 0.2528700 0.7391852
-26.1870481 -10.9925297 10.9850280 -0.8067300 0.1201044 0.5785859
-27.2144402 -11.2600180 9.2814184 -0.9118744 0.0048825 0.4104403
-27.8703849 -12.2440459 7.1798932 -0.9499091 -0.1494014 0.2745031
-15.7381351 -7.0261141 33.6063859 -0.4199955 0.1352122 0.8973970
-17.4683213 -6.1010017 32.4152638 -0.7245473 0.0624588 0.6863891
-18.4504609 -6.2687725 30.9034038 -0.9386876 -0.0036336 0.3447497
-18.6652474 -7.6188838 28.9886532 -0.9963456 -0.0851597 0.0065720
-18.2326534 -10.0300621 26.6573175 -0.9861418 -0.0720398 -0.1494479
-17.8565486 -12.4431341 24.2483792 -0.9963472 0.0848874 0.0092893
-18.2751455 -13.6613623 22.2209475 -0.9499611 0.2172627 0.2244344
-19.1534678 -14.1679037 20.4389181 -0.8655199 0.2656465 0.4246259
-20.1622661 -14.4751112 18.7233387 -0.7949826 0.3126846 0.5198374
-21.3252581 -14.5298888 17.1066248 -0.7250245 0.2862042 0.6264396
-22.6253345 -14.3464270 15.5944736 -0.6672251 0.2912729 0.6855441
-24.0237274 -13.9790013 14.1731135 -0.6855194 0.2390691 0.6876839
-25.3437845 -13.7395413 12.7018609 -0.7917194 0.1369882 0.5953274
-26.4355725 -13.9178003 11.0311542 -0.9101946 -0.0003042 0.4141808
-26.9698091 -15.1741075 8.8036099 -0.9583377 -0.2252066 0.1757012
-17.1788355 -9.3761809 32.5733946 -0.7774794 -0.0912330 0.6222559
-18.0716724 -9.7224513 30.9791873 -0.9159791 -0.2081697 0.3429982
-18.1665969 -11.3431091 28.9617332 -0.9838515 -0.1750721 0.0372281
-17.6072811 -14.0790786 26.5151135 -0.9471678 -0.3106570 0.0797831
-19.1798417 -17.3973075 20.5472463 -0.7550136 -0.2168299 0.6188209
-20.4735237 -17.2538487 18.9900890 -0.7753942 0.0389143 0.6302773
-21.7135948 -17.2001183 17.3997062 -0.7634957 -0.0075982 0.6457682
-23.0668066 -16.9388950 15.9005955 -0.7298481 0.0715702 0.6798525
-24.3549756 -16.7873973 14.3601667 -0.7958989 -0.0038940 0.6054170
-25.4900189 -16.9201503 12.6922099 -0.8875241 -0.1250548 0.4434662
-25.8283009 -18.6061338 10.2741294 -0.9440245 -0.3028883 0.1306770
16.9202554 28.2372220 1.9238303 0.7284339 0.6705458 -0.1405433
17.1435188 28.1947599 3.9053612 0.7642359 0.6449334 0.0020973
17.0756663 28.2907600 5.9268090 0.7771233 0.6216879 0.0978953
28.6374456 20.4447250 -10.0299388 0.8239618 0.4671593 -0.3207009
29.0890993 20.2933210 -8.2757459 0.8658990 0.4987906 -0.0377738
28.5690429 20.5822915 -6.4957881 0.7274971 0.6035646 0.3262785
24.2236101 22.6089595 -4.4799776 0.4620413 0.5977338 0.6551582
20.2115372 24.4888862 -2.3292846 0.7178102 0.5585448 0.4156635
18.8035676 25.1880396 -0.2677381 0.9085934 0.3299892 0.2560571
18.2006159 25.5220418 1.7618252 0.9400954 0.2824639 0.1908788
18.0869395 25.6336442 3.7564533 0.9729673 0.2303371 0.0167163
18.1240501 25.6766647 5.7389265 0.9641087 0.2653446 0.0093096
18.0951767 25.7499897 7.7364396 0.9542843 0.2833636 0.0951131
17.6306305 26.0229908 9.8194656 0.8311586 0.4692257 0.2983330
28.2514273 18.6829378 -11.7727335 0.7607519 0.2027151 -0.6165736
29.5416464 18.1738066 -10.0169136 0.8880063 0.2200914 -0.4037382
30.0719436 17.9934866 -8.2860599 0.9705315 0.2307273 -0.0695231
30.0216423 18.0651684 -6.5470112 0.9181720 0.3559226 0.1740094
29.1257758 18.5050520 -4.7543724 0.7284488 0.4847313 0.4841465
22.1497165 21.5953250 -2.4799158 0.5333264 0.4286746 0.7292469
19.4932565 22.8084510 -0.3458520 0.8511985 0.2578837 0.4571182
18.5081299 23.2944825 1.7062989 0.9430567 0.1633383 0.2897666
18.1936806 23.4884165 3.7141705 0.9979394 0.0538208 0.0349337
18.3053439 23.4962900 5.6772666 0.9968390 0.0669813 -0.0427261
18.4376558 23.4951585 7.6385876 0.9923261 0.1188841 -0.0339909
18.5373422 23.5083677 9.6066394 0.9443197 0.3032590 0.1276489
18.0695034 23.7709633 11.6893784 0.7475310 0.4791453 0.4600187
26.6298427 17.4361550 -13.5520218 0.5862081 0.0078371 -0.8101226
28.5006055 16.7088585 -11.7478730 0.7940556 0.0237358 -0.6073816
29.5997591 16.3001960 -10.0018307 0.8831762 -0.0554474 -0.4657525
30.2673005 16.0699763 -8.2805815 0.9750025 0.0057472 -0.2221196
30.5079459 16.0168513 -6.5617314 0.9768719 0.2067205 0.0546625
30.2265103 16.1810764 -4.8175473 0.9025378 0.2807354 0.3265167
28.7705658 16.8354547 -2.9726947 0.6840918 0.4294453 0.5895720
20.4374559 20.3623448 -0.4467903 0.7117870 0.3482676 0.6099746
18.8766453 21.0669414 1.6444185 0.8895353 0.2349252 0.3918380
18.3246701 21.3510661 3.6690708 0.9906985 0.1048372 0.0867509
18.3606286 21.3895805 5.6341294 0.9945352 0.0773535 -0.0701153
18.5517146 21.3631497 7.5783016 0.9886776 0.1038734 -0.1082907
18.8446061 21.2939366 9.5028561 0.9796686 0.1756109 -0.0970061
19.0371732 21.2667631 11.4423182 0.9330557 0.3258022 0.1525121
18.2820039 21.6384270 13.5851841 0.6120985 0.5716414 0.5464079
11.6152601 21.2321314 -24.0742180 0.6441940 0.6236056 -0.4428659
13.4240003 20.5712146 -21.8886598 0.7581555 0.3949292 -0.5188749
15.6226323 19.7550960 -19.7271001 0.6930950 0.3514503 -0.6293663
26.3991593 15.6417496 -13.5320943 0.6359063 -0.1152915 -0.7631062
28.2132912 14.9688076 -11.7309568 0.7653737 -0.1953449 -0.6132238
29.2997640 14.5829291 -9.9857795 0.8429955 -0.2317072 -0.4854590
30.0747476 14.3198643 -8.2672625 0.9342391 -0.1777361 -0.3092040
30.4599380 14.2111525 -6.5562339 0.9874720 -0.0773753 -0.1375213
30.5116011 14.2349299 -4.8354068 0.9803970 0.1111687 0.1626753
30.0915996 14.4466764 -3.0771331 0.8822541 0.2964833 0.3656849
27.7837714 15.4118186 -1.1280138 0.4989688 0.5649094 0.6571966
19.7714194 18.6568201 1.5257952 0.7763821 0.3998200 0.4872113
18.7857350 19.1005276 3.5826042 0.9320620 0.3018458 0.2003735
18.6385388 19.2097282 5.5592295 0.9779542 0.2045733 -0.0418961
18.8176949 19.1884550 7.4938128 0.9732480 0.2019016 -0.1096543
19.1460591 19.1073115 9.4007085 0.9698624 0.1907761 -0.1515636
19.5684706 18.9882416 11.2827829 0.9689166 0.2093264 -0.1318448
19.6853942 18.9917368 13.2210353 0.9436475 0.3261696 0.0560603
11.1779645 19.2145606 -26.0610626 0.7329124 0.2312988 -0.6397971
13.0637967 18.5554033 -23.8409777 0.8175600 0.2442327 -0.5214845
14.5644964 18.0394981 -21.7182597 0.7844785 0.1932537 -0.5892762
16.5368325 17.3451088 -19.6022973 0.6744352 0.1752128 -0.7172431
26.0612688 13.8916793 -13.5155921 0.6479075 -0.1776584 -0.7407114
27.6423733 13.3374856 -11.7180701 0.7585264 -0.2952119 -0.5809368
28.7186321 12.9729966 -9.9688410 0.8099353 -0.3234534 -0.4892675
29.5747287 12.6910683 -8.2476461 0.8651456 -0.3076526 -0.3960720
30.1328959 12.5214512 -6.5401566 0.9380010 -0.2302517 -0.2591105
30.4783670 12.4321812 -4.8355854 0.9929402 -0.0637051 -0.1000568
30.5080965 12.4626708 -3.1152918 0.9907579 0.1213661 0.0605724
30.0564051 12.6763283 -1.3476580 0.8815534 0.3672267 0.2966616
23.2525820 15.3088239 1.1278711 0.4267549 0.6602050 0.6180693
20.0363222 16.5799021 3.3971996 0.8068253 0.5132884 0.2925200
19.3980420 16.8701894 5.4155945 0.9002149 0.4205668 0.1128570
19.4355751 16.9029957 7.3530241 0.9222170 0.3766014 -0.0876767
19.6899943 16.8529569 9.2557001 0.9320645 0.3258704 -0.1583167
20.1335710 16.7304077 11.1174766 0.9436440 0.2982521 -0.1434629
20.4375311 16.6611209 12.9988375 0.9295108 0.3686874 0.0089023
20.3002917 16.7610070 14.9775067 0.8772533 0.4053027 0.2572088
12.0086713 16.7939847 -25.8803527 0.7986552 0.1410694 -0.5850207
13.5356075 16.2937504 -23.7235887 0.8347837 0.1266985 -0.5358020
14.9042786 15.8490428 -21.6290799 0.7614768 0.1571046 -0.6288651
16.9944167 15.1451563 -19.5162964 0.6547180 0.1972302 -0.7296880
23.3546671 12.9508667 -15.3839512 0.5610691 0.0202061 -0.8275223
25.5972958 12.1868245 -13.5030182 0.7287419 -0.2072837 -0.6526628
26.9468447 11.7421947 -11.7068207 0.7649185 -0.3200269 -0.5590014
27.9571485 11.4187051 -9.9512243 0.7924035 -0.3603346 -0.4921947
28.8195084 11.1478303 -8.2227250 0.8210525 -0.3543643 -0.4475474
29.6175852 10.8995680 -6.5169198 0.8882786 -0.2721916 -0.3699633
30.2410772 10.7138204 -4.8244385 0.9580793 -0.1428097 -0.2483735
30.6018187 10.6226639 -3.1298011 0.9876622 0.0943420 -0.1249918
30.7190844 10.6194367 -1.4210157 0.9760950 0.2022483 0.0795873
30.3881012 10.7786154 0.3368251 0.8713919 0.4384233 0.2201390
28.5984180 11.4672112 2.2943154 0.5650537 0.6746983 0.4748648
21.2836915 14.1634093 5.1113348 0.7213561 0.6574541 0.2177143
20.7610495 14.3967925 7.0990684 0.8087427 0.5829412 0.0781980
20.7640924 14.4394275 9.0167231 0.8686817 0.4913044 -0.0633413
21.0248302 14.3883045 10.8889829 0.8922594 0.4397380 -0.1024876
21.3108515 14.3278708 12.7518909 0.9120679 0.4008101 -0.0865061
21.3851353 14.3446347 14.6591318 0.9106433 0.3975186 0.1127285
20.7410516 14.6240409 16.7488803 0.8241108 0.3955898 0.4054011
12.3366097 14.5872791 -25.7679143 0.7700791 0.1731091 -0.6140125
13.9238928 14.0909083 -23.6168016 0.7809774 0.2502365 -0.5722378
15.8275058 13.4860944 -21.4827557 0.7155892 0.3103321 -0.6258004
18.2322018 12.7096894 -19.3669180 0.6436936 0.3468201 -0.6821835
20.9342390 11.8304693 -17.3083964 0.6380355 0.2379075 -0.7323324
23.4480727 11.0134971 -15.3460567 0.7196299 0.0315277 -0.6936417
25.1647736 10.4666193 -13.4894056 0.7963334 -0.1604792 -0.5831805
26.3281251 10.1074852 -11.6943668 0.8096042 -0.2888298 -0.5109975
27.2479495 9.8308223 -9.9336603 0.8159462 -0.3249519 -0.4781611
28.1509622 9.5593359 -8.1995223 0.8167662 -0.3099778 -0.4866280
29.1001161 9.2714822 -6.4935868 0.8464710 -0.2220320 -0.4839305
29.9371075 9.0214818 -4.8095924 0.9138749 -0.1448904 -0.3792618
30.6046172 8.8291305 -3.1376233 0.9614262 0.0382702 -0.2723875
31.0306005 8.7193696 -1.4624003 0.9797760 0.1483376 -0.1342944
31.1949248 8.6993933 0.2308532 0.9732974 0.2281847 0.0249787
31.0012694 8.8026623 1.9679466 0.8574328 0.4232577 0.2926806
30.0356827 9.1722767 3.8269514 0.7067011 0.5752162 0.4119465
24.7856302 11.0212673 6.4128914 0.5198608 0.7677456 0.3745817
22.9153753 11.7067034 8.5869188 0.6970942 0.6822551 0.2204263
22.5269930 11.8811587 10.5419472 0.8748729 0.4820790 0.0468745
22.4799409 11.9378418 12.4430485 0.8977336 0.4387336 0.0398389
22.4054021 12.0042008 14.3574781 0.9368746 0.3369900 0.0932938
21.9733638 12.1947808 16.3691084 0.8811416 0.3383742 0.3302915
19.9790526 12.9285065 18.8195429 0.5449902 0.3989432 0.7374483
13.4829018 12.1430577 -25.5479840 0.7146709 0.4083643 -0.5678768
15.2983759 11.5983754 -23.3968965 0.6885471 0.5021082 -0.5232497
17.5450734 10.9138669 -21.2593151 0.6707378 0.4883243 -0.5582564
19.7633446 10.2370997 -19.1949275 0.6935425 0.3980875 -0.6004374
21.9951755 9.5545629 -17.1998572 0.7415237 0.2508826 -0.6222544
23.6524665 9.0560051 -15.3031421 0.7882868 0.0877472 -0.6090191
24.9137000 8.6843533 -13.4701832 0.8587827 -0.0686958 -0.5077136
25.8279317 8.4241457 -11.6801926 0.8706812 -0.1596188 -0.4652270
26.6599349 8.1900273 -9.9164240 0.8488611 -0.2280349 -0.4769013
27.6388452 7.9078300 -8.1795170 0.8280881 -0.1870098 -0.5284860
28.6885056 7.6021050 -6.4742731 0.8307423 -0.1125289 -0.5451647
29.7235708 7.3004912 -4.7997558 0.8837034 -0.0697420 -0.4628222
30.5564941 7.0639688 -3.1416906 0.9157858 0.0160864 -0.4013448
31.1839426 6.8938303 -1.4893545 0.9692039 0.0590052 -0.2390860
31.5487304 6.8089175 0.1740601 0.9888367 0.1378341 -0.0566010
31.6018124 6.8254985 1.8684030 0.9703078 0.2185457 0.1036364
31.2969037 6.9590102 3.6166478 0.8957361 0.3323278 0.2953220
30.4387285 7.2736500 5.4689885 0.7827884 0.4370169 0.4430108
27.6131475 8.2326730 7.7063031 0.5537436 0.5920591 0.5855203
24.6089274 9.2522930 10.0833333 0.7211283 0.5778722 0.3821487
23.6722241 9.5962372 12.1309195 0.8735519 0.4237118 0.2395317
23.1625522 9.8007812 14.1182911 0.9418415 0.2670424 0.2040170
22.6944423 9.9921344 16.1187099 0.9259899 0.2596344 0.2741033
21.6886812 10.3607847 18.2845847 0.7447719 0.3162370 0.5876299
3.3437894 16.4401086 25.4291540 0.7497450 0.5769183 0.3241106
1.8456136 16.9789567 28.1389334 0.6880593 0.6113591 0.3909149
16.0843799 9.3114389 -25.1380612 0.6521959 0.6312800 -0.4196738
18.0556454 8.7479821 -23.0198243 0.6882342 0.5958314 -0.4139065
19.5232832 8.3364438 -21.0122684 0.6963115 0.5099755 -0.5050498
21.2770098 7.8370513 -19.0259499 0.7594643 0.3636394 -0.5394259
22.7577276 7.4197908 -17.1115600 0.8108650 0.2942980 -0.5058524
23.9625261 7.0858024 -15.2555609 0.8684117 0.1431446 -0.4747323
24.7858909 6.8675413 -13.4472598 0.9148350 0.0412035 -0.4017202
25.5538454 6.6657763 -11.6629381 0.9070153 -0.0158849 -0.4207980
26.3717379 6.4483444 -9.9002458 0.8788997 -0.0956362 -0.4673211
27.3747431 6.1738193 -8.1646703 0.8521671 -0.0715398 -0.5183564
28.5678972 5.8404794 -6.4660509 0.8218300 0.0089909 -0.5696618
29.6263268 5.5477915 -4.7963555 0.8655440 0.0123997 -0.5006794
30.5950556 5.2820573 -3.1520160 0.9099435 0.0196476 -0.4142665
31.2083696 5.1250358 -1.5045771 0.9635791 0.0132996 -0.2670924
31.6333965 5.0256423 0.1464325 0.9917042 0.0146852 -0.1276995
31.7376954 5.0248529 1.8273286 0.9954958 0.0640055 0.0699383
31.5910858 5.1014492 3.5449561 0.9704871 0.1130844 0.2129945
31.1538301 5.2679414 5.3188698 0.9312383 0.1645426 0.3251477
30.0937706 5.6272495 7.2233818 0.8027858 0.3377625 0.4913772
27.4113578 6.4891682 9.4865082 0.6046505 0.5256655 0.5983925
24.8588651 7.3127009 11.8216603 0.8072043 0.4285105 0.4059556
23.7876690 7.6788305 13.9108680 0.8955527 0.3254510 0.3034255
23.2221961 7.8888299 15.9177267 0.9302479 0.2639559 0.2548845
22.5838454 8.1219369 17.9693311 0.8703810 0.4024994 0.2836037
20.1662298 8.9088566 20.5542577 0.4849967 0.4363493 0.7578769
4.6880258 13.7632272 27.1741056 0.7150951 0.5848880 0.3828121
2.7829086 14.3981899 30.0142241 0.7016343 0.4865532 0.5205529
17.2704376 6.9253181 -28.6337704 0.6068406 0.7245310 -0.3268016
18.5633623 6.5880369 -26.5868096 0.6547633 0.7094750 -0.2606343
19.5413996 6.3400583 -24.6193277 0.6959807 0.6588308 -0.2855746
20.5361654 6.0868214 -22.6777125 0.7414216 0.6025322 -0.2953793
21.4780124 5.8482462 -20.7697223 0.8020786 0.4896899 -0.3418680
22.4470570 5.6014203 -18.8863225 0.8109889 0.4340551 -0.3922922
23.5880981 5.3047871 -17.0197308 0.8683315 0.3032786 -0.3924571
24.3688941 5.1110071 -15.2038491 0.9398331 0.1581238 -0.3028376
24.9402473 4.9770506 -13.4159425 0.9415905 0.1025402 -0.3207692
25.5531925 4.8308786 -11.6421198 0.9159494 0.0695071 -0.3952283
26.3734713 4.6247234 -9.8852197 0.8879820 0.0871668 -0.4515417
27.4175181 4.3536644 -8.1562883 0.8303596 0.1012686 -0.5479485
28.6217947 4.0358385 -6.4645047 0.8213430 0.1225633 -0.5571122
29.7525563 3.7386216 -4.8053185 0.8711836 0.0558885 -0.4877660
30.5886691 3.5260180 -3.1590234 0.9141278 0.0148294 -0.4051547
31.1733674 3.3857721 -1.5143667 0.9720189 -0.0263880 -0.2334160
31.5541386 3.3043462 0.1365335 0.9939018 -0.0375942 -0.1036622
31.6592599 3.3027236 1.8131826 0.9979608 -0.0588734 -0.0246629
31.5553091 3.3618197 3.5205014 0.9885700 -0.0505884 0.1420218
31.2544636 3.4782826 5.2675128 0.9641287 0.0482034 0.2610216
30.6935814 3.6706602 7.0757801 0.8927937 0.2029871 0.4021388
29.6450090 4.0054890 9.0033763 0.7605553 0.4244610 0.4913130
27.1490659 4.7629958 11.2798484 0.6166229 0.5886447 0.5227558
24.9342054 5.4400605 13.5847362 0.8010631 0.4789743 0.3590008
24.0182806 5.7390749 15.6514542 0.8748713 0.4306820 0.2216149
23.6113476 5.8898792 17.6207458 0.8542892 0.4884766 0.1777094
23.0483718 6.0867014 19.6538959 0.8061974 0.5295603 0.2638402
10.0467935 9.9291754 25.4571538 0.4951036 0.6508769 0.5755273
5.7444511 11.2276638 28.9566892 0.6591943 0.5444525 0.5186852
19.1208438 4.4565813 -30.0692726 0.6961455 0.5436631 -0.4688409
20.4559887 4.1276606 -28.0361065 0.7810127 0.4908170 -0.3861578
21.3102224 3.9269670 -26.1132094 0.8040012 0.5106754 -0.3046189
22.0215908 3.7642171 -24.2325820 0.8328364 0.5032320 -0.2305236
22.5465051 3.6512225 -22.3921370 0.8303510 0.5084431 -0.2280412
23.0928932 3.5322575 -20.5623806 0.8308737 0.4956089 -0.2530233
23.7753238 3.3764891 -18.7352271 0.8563009 0.4183691 -0.3028465
24.3206938 3.2573367 -16.9349736 0.9185994 0.2981339 -0.2594056
24.8036564 3.1547891 -15.1512689 0.9560116 0.2062543 -0.2085687
25.2147080 3.0714587 -13.3812871 0.9530648 0.1653163 -0.2536495
25.8001072 2.9409061 -11.6182361 0.9158235 0.1559183 -0.3700767
26.6753932 2.7317618 -9.8715142 0.8677278 0.1733185 -0.4658424
27.7976366 2.4554075 -8.1550982 0.8226212 0.1996332 -0.5323917
28.9432772 2.1721893 -6.4732095 0.8422823 0.1415204 -0.5201275
29.9286258 1.9318837 -4.8170220 0.9020655 0.1063295 -0.4182964
30.6554777 1.7612673 -3.1712919 0.9362000 0.0907052 -0.3395618
31.1571916 1.6514863 -1.5257714 0.9862579 0.0049074 -0.1651403
31.4411269 1.6007212 0.1303368 0.9965031 -0.0408281 -0.0729015
31.4461059 1.6257999 1.8159066 0.9944421 -0.1052841 0.0002893
31.3274783 1.6846249 3.5234365 0.9881566 -0.1255112 0.0882807
31.1287510 1.7654324 5.2524800 0.9812359 -0.0591531 0.1835127
30.8576664 1.8661750 7.0059031 0.9680278 0.1100079 0.2254341
30.5298297 1.9826488 8.7845260 0.9577073 0.2388764 0.1604204
29.9750364 2.1614603 10.6274277 0.7681506 0.5517811 0.3247802
28.6378174 2.5548990 12.6740351 0.5613908 0.7866681 0.2568924
26.4696396 3.1769190 14.9778864 0.5643848 0.8057632 0.1794870
25.8714608 3.3694470 16.9478863 0.6401591 0.7664550 0.0523740
25.8315380 3.4090584 18.7864780 0.5933099 0.8048488 0.0142024
25.6729673 3.4813919 20.6671768 0.5421025 0.8343553 0.0998802
11.6847367 7.3600234 26.9576688 0.5414873 0.6347172 0.5512945
4.8620028 9.2725248 31.3466538 0.2433118 0.2959037 0.9237101
18.9548156 2.5742970 -31.8261791 0.7282757 0.3144500 -0.6088807
20.7094354 2.1612790 -29.7042321 0.8083696 0.3375406 -0.4822913
21.8410979 1.9034461 -27.7370124 0.8446737 0.3525680 -0.4027682
22.6923438 1.7154087 -25.8435934 0.8833662 0.3360543 -0.3266981
23.2835500 1.5922535 -24.0075051 0.8914935 0.3637370 -0.2700643
23.8133808 1.4842923 -22.1933362 0.9164996 0.3444192 -0.2034797
24.3111479 1.3842026 -20.3952411 0.9361941 0.2975083 -0.1871613
24.6931163 1.3130673 -18.6183659 0.9718787 0.2003159 -0.1237953
24.9909844 1.2629886 -16.8549301 0.9731203 0.1587129 -0.1668746
25.2406795 1.2249732 -15.0990565 0.9667273 0.1599753 -0.1996153
25.5653020 1.1680055 -13.3446850 0.9537516 0.1556985 -0.2571300
26.1890499 1.0354264 -11.5927764 0.8865021 0.1870613 -0.4232282
27.1267988 0.8232592 -9.8586229 0.8431798 0.2000179 -0.4990397
28.3468502 0.5392930 -8.1576222 0.8131412 0.2522160 -0.5245841
29.4294186 0.2896112 -6.4882572 0.8572741 0.2437200 -0.4535215
30.3031629 0.0923932 -4.8396860 0.9015987 0.1976707 -0.3847676
30.8687962 -0.0270212 -3.1941173 0.9546822 0.1511178 -0.2564086
31.2178733 -0.0916560 -1.5439856 0.9835652 0.1114174 -0.1420762
31.3403564 -0.0988010 0.1229083 0.9980657 0.0619907 -0.0046870
31.2376170 -0.0486378 1.8181019 0.9932682 -0.0954050 0.0656980
31.0385278 0.0261797 3.5350693 0.9831483 -0.1515755 0.1021971
30.8978558 0.0862699 5.2542870 0.9906383 -0.1238167 0.0574908
30.8423975 0.1247521 6.9680298 0.9990087 -0.0409861 -0.0173725
30.9388949 0.1245157 8.6589494 0.9834759 0.1798679 -0.0205576
31.0891823 0.1105454 10.3398218 0.9237528 0.3795921 -0.0508979
31.1881898 0.1096906 12.0318506 0.8798049 0.4740056 -0.0355258
31.1103067 0.1541682 13.7686805 0.7803536 0.6203408 0.0789022
30.9195271 0.2277022 15.5427909 0.7578066 0.6492325 0.0650098
30.6366894 0.3250298 17.3543374 0.7499748 0.6514444 0.1147081
30.1931560 0.4638570 19.2288197 0.7147869 0.6881667 0.1245244
29.5332399 0.6586291 21.1925426 0.7139257 0.6561253 0.2445601
28.0674772 1.0612648 23.4546754 0.6336351 0.6552063 0.4113529
19.6211978 0.5329233 -31.6111869 0.7115199 0.0134246 -0.7025377
21.2045003 0.1872606 -29.5376738 0.8409189 0.0400936 -0.5396739
22.3521621 -0.0574627 -27.5822756 0.8894773 0.0322270 -0.4558415
23.2087195 -0.2346938 -25.7025276 0.9380575 0.0564455 -0.3418508
23.7994444 -0.3501501 -23.8808527 0.9636574 0.0446188 -0.2633886
24.2308325 -0.4285550 -22.0921015 0.9669423 0.0446766 -0.2510511
24.6317879 -0.4999650 -20.3159770 0.9880601 -0.0263679 -0.1517960
24.9230292 -0.5457954 -18.5573096 0.9872250 -0.0477051 -0.1520228
25.1803168 -0.5837331 -16.8058680 0.9879723 -0.1044558 -0.1140161
25.3431947 -0.5995732 -15.0627571 0.9772114 -0.1102129 -0.1814139
25.7427690 -0.6710048 -13.3135110 0.9400640 -0.0566180 -0.3362649
26.4816601 -0.8223016 -11.5688082 0.8997720 0.0052400 -0.4363288
27.6318229 -1.0706136 -9.8461903 0.8164670 0.1008526 -0.5685159
28.9697037 -1.3635703 -8.1618717 0.7966062 0.2109964 -0.5664795
30.0012383 -1.5848497 -6.5066416 0.8554920 0.2461168 -0.4555874
30.7558582 -1.7411957 -4.8666455 0.9083582 0.2795409 -0.3110343
31.2568310 -1.8379211 -3.2295088 0.9525123 0.2427480 -0.1838307
31.4415161 -1.8600540 -1.5766860 0.9805882 0.1918661 -0.0404246
31.3957203 -1.8276847 0.0989066 0.9923501 0.0978635 0.0752593
31.0596012 -1.7264894 1.8165747 0.9723919 -0.0585023 0.2259016
30.7404423 -1.6291058 3.5480081 0.9843113 -0.1399953 0.1073902
30.6284557 -1.5806702 5.2622563 0.9858090 -0.1667053 -0.0197474
30.7045748 -1.5767933 6.9519501 0.9886460 -0.0789243 -0.1278672
31.0058311 -1.6264032 8.6001517 0.9792081 -0.0385414 -0.1991636
31.4555459 -1.7114086 10.2112363 0.9761890 0.0579337 -0.2090424
31.8256536 -1.7775991 11.8294160 0.9751080 0.1997206 -0.0963126
32.0853639 -1.8175820 13.4663993 0.9643789 0.2449221 -0.0999323
32.2198621 -1.8277479 15.1318779 0.9387711 0.3442586 -0.0139610
32.2029456 -1.8017539 16.8398199 0.9244273 0.3798632 0.0337354
31.9091883 -1.7095139 18.6357104 0.9188800 0.3797612 0.1069624
31.4152369 -1.5691772 20.5100566 0.8565782 0.4347620 0.2779493
30.5223119 -1.3329967 22.5400175 0.8181590 0.3775718 0.4336536
28.8162921 -0.9014168 24.8927805 0.7193127 0.4481135 0.5308328
19.3196758 -1.2651736 -31.5860889 0.6617003 -0.2418002 -0.7097079
21.0054159 -1.6083582 -29.4960367 0.7712623 -0.2470062 -0.5866365
22.1823903 -1.8422368 -27.5388581 0.8616164 -0.2354550 -0.4496421
23.0003523 -1.9988964 -25.6678920 0.9050486 -0.2357605 -0.3539831
23.6288067 -2.1148095 -23.8436705 0.9440859 -0.2034341 -0.2594540
24.0624068 -2.1887112 -22.0574893 0.9424261 -0.2529956 -0.2186922
24.3836483 -2.2383715 -20.2918220 0.9574608 -0.2535827 -0.1377124
24.5417929 -2.2527193 -18.5451276 0.9315121 -0.3560134 -0.0744292
24.7065297 -2.2685059 -16.7986640 0.9082383 -0.4094298 -0.0864310
24.8648283 -2.2829032 -15.0533616 0.8545930 -0.4736052 -0.2129999
25.3505942 -2.3685375 -13.2991778 0.8519647 -0.3715596 -0.3689168
26.2475584 -2.5438278 -11.5515777 0.7549350 -0.2637251 -0.6004350
27.7657846 -2.8547871 -9.8323230 0.7264849 -0.1028041 -0.6794490
29.3268463 -3.1756253 -8.1606070 0.7804902 0.0717832 -0.6210331
30.6269943 -3.4400635 -6.5271550 0.8233964 0.2124157 -0.5262110
31.4110277 -3.5921928 -4.9047688 0.9127838 0.2455974 -0.3263552
31.8534743 -3.6698782 -3.2798789 0.9370520 0.3071693 -0.1660743
31.9285899 -3.6672844 -1.6327887 0.9563932 0.2740112 0.1011427
31.6211678 -3.5808636 0.0569320 0.9572241 0.1579013 0.2424648
31.0316015 -3.4324028 1.7965672 0.9516592 0.0524620 0.3026424
30.4886225 -3.2938811 3.5544424 0.9795682 -0.1065640 0.1705589
30.3195548 -3.2372288 5.2765041 0.9787305 -0.2045684 -0.0154420
30.4330936 -3.2425927 6.9594588 0.9672796 -0.1868692 -0.1716100
30.8115191 -3.3062422 8.5920608 0.9241354 -0.2808546 -0.2590259
31.3287530 -3.4005650 10.1869840 0.9192120 -0.2618236 -0.2941049
31.7965117 -3.4841340 11.7797755 0.9350834 -0.2426090 -0.2583793
32.1740388 -3.5479263 13.3829624 0.9852223 -0.0858870 -0.1481906
32.3868303 -3.5754319 15.0208046 0.9955473 -0.0618946 -0.0710960
32.4171256 -3.5626247 16.7069311 0.9990352 -0.0010082 0.0439047
32.2868547 -3.5142463 18.4444518 0.9855061 -0.0013177 0.1696352
31.8849622 -3.4056019 20.2769294 0.9682475 -0.0003190 0.2499934
31.1511372 -3.2231546 22.2389411 0.9013195 0.0345520 0.4317746
29.8909833 -2.9235650 24.4164898 0.8052976 0.1245573 0.5796389
26.9692673 -2.2543770 27.2564965 0.5918199 0.2233777 0.7745009
18.1786331 -2.8950735 -31.7237723 0.5358991 -0.5243551 -0.6617129
20.1160656 -3.2619878 -29.5771365 0.6801848 -0.4774096 -0.5562631
21.3932642 -3.4981219 -27.5954878 0.7457523 -0.5044019 -0.4352381
22.3452341 -3.6698644 -25.6980961 0.8062024 -0.4839596 -0.3403245
22.9445889 -3.7715960 -23.8725947 0.8375916 -0.4690961 -0.2799807
23.4110814 -3.8469773 -22.0770753 0.8609066 -0.4872768 -0.1462915
23.5999800 -3.8670468 -20.3188185 0.8333159 -0.5503718 -0.0517260
23.6393674 -3.8572582 -18.5739816 0.8020222 -0.5972836 -0.0035663
23.6530618 -3.8422978 -16.8274206 0.7707922 -0.6348420 -0.0534329
23.7637550 -3.8467094 -15.0722488 0.7404335 -0.6535058 -0.1571255
24.2132343 -3.9189777 -13.3063266 0.7154022 -0.6107478 -0.3393919
25.2343212 -4.1059539 -11.5438364 0.6167929 -0.5761259 -0.5363260
27.1256008 -4.4678450 -9.8149865 0.5034837 -0.3861988 -0.7728872
29.4271714 -4.9127341 -8.1539467 0.6529952 -0.1004734 -0.7506680
31.0096723 -5.2138283 -6.5384123 0.7986440 0.0578644 -0.5990154
31.8786786 -5.3718823 -4.9324914 0.8928879 0.1340598 -0.4298594
32.4204503 -5.4643022 -3.3279719 0.9527083 0.2436562 -0.1815999
32.4830844 -5.4603084 -1.6947024 0.9755181 0.2015877 0.0879020
32.0354814 -5.3533804 -0.0049197 0.9231083 0.1795816 0.3400317
31.1706762 -5.1620332 1.7560813 0.9055698 0.0906153 0.4144059
