-32.3253350 6.0648338 -11.7032683 -0.9216846 0.3830342 -0.0615002
24.7348452 2.4644157 24.7896256 0.3962136 0.7586313 0.5171975
22.1576690 3.9247907 24.1715930 0.2959775 0.7816575 0.5490072
19.6272254 5.3860980 23.5838708 0.3071669 0.7037338 0.6406304
16.9725593 7.1693584 23.1416608 0.3658889 0.5914554 0.7185442
14.1252218 9.4374146 22.9149973 0.4105843 0.5798824 0.7036739
11.4381981 11.5318093 22.6690661 0.4007780 0.6404886 0.6550965
8.9786747 13.2963138 22.3376407 0.4148500 0.6729412 0.6124129
6.4943356 15.2359521 22.1125081 0.5274196 0.6508338 0.5461171
0.8154599 21.1789282 22.6495897 0.3474676 0.8266653 0.4425955
-0.7703674 21.5045707 21.8700098 -0.2064704 0.9562290 0.2073550
-2.0397572 21.0710618 20.7622499 -0.3639995 0.9124871 0.1867396
-3.2640150 20.4843508 19.5763750 -0.5429843 0.8126907 0.2114280
-4.5306829 19.9605503 18.4074225 -0.4929087 0.7829021 0.3796120
-5.8920568 19.6558637 17.3310521 -0.4565556 0.7423791 0.4903368
-7.3539455 19.6189852 16.3775096 -0.3986045 0.6847332 0.6101270
-8.8527313 19.6927752 15.4776690 -0.3513471 0.6422810 0.6811977
-10.3745583 19.8495226 14.6210137 -0.3210448 0.5991628 0.7334400
-11.9203645 20.1064087 13.8189214 -0.2859706 0.5865536 0.7577438
-13.4898314 20.4800976 13.0832065 -0.1969088 0.5579903 0.8061475
-15.0758912 20.9652057 12.4146035 -0.1624053 0.5291441 0.8328451
-16.6560263 21.4907557 11.7779430 -0.1732494 0.4913142 0.8535778
-18.2056772 21.9561816 11.1187326 -0.2947104 0.4227375 0.8569941
-19.6967271 22.2125413 10.3510266 -0.3916573 0.4121239 0.8226533
-21.1034975 22.0732901 9.3611281 -0.6692349 0.3198921 0.6706666
-22.3766136 21.1484215 7.9085964 -0.8970924 0.1710445 0.4073930
-23.3269201 18.0144454 5.1215190 -0.9791783 0.1889867 -0.0741212
-24.2577243 14.0355076 1.7580030 -0.8960870 0.4343641 -0.0914103
-25.5660757 12.0076163 -0.4855398 -0.7686835 0.6388034 0.0324942
-27.0226914 10.7214236 -2.3063273 -0.7282644 0.6657900 0.1623412
-28.5490312 9.7294529 -3.9663376 -0.7273750 0.6369034 0.2554991
-30.1006011 8.6478801 -5.7048008 -0.7847741 0.5452068 0.2947527
-31.6470276 6.9198606 -7.8904796 -0.9127042 0.3805596 0.1488131
23.6201471 1.6563222 26.3608251 0.3193990 0.6912064 0.6482422
21.0270529 3.1929142 25.7457805 0.2301515 0.7588118 0.6092906
18.6402749 4.4356622 25.0645801 0.2567285 0.7452725 0.6153530
16.0353931 6.1756414 24.5784753 0.4003228 0.6408153 0.6550553
13.1712009 8.5424491 24.3482407 0.4504991 0.6115772 0.6504029
10.4318666 10.8085300 24.1296852 0.4701492 0.6498659 0.5971884
7.8827488 12.8246866 23.8642153 0.5169592 0.6801102 0.5198109
-0.1772718 20.7679309 24.0768149 0.1197714 0.8646222 0.4879378
-1.6622220 20.8761084 23.2069523 -0.3121383 0.9274756 0.2058123
-2.8724352 20.2890953 22.0451564 -0.4772772 0.8609076 0.1761944
-4.0523478 19.5705995 20.8143996 -0.6090249 0.7751646 0.1679542
-5.2681639 18.8877659 19.5847768 -0.5728863 0.7554250 0.3180164
-6.5855174 18.4374279 18.4466584 -0.5392382 0.7191277 0.4382665
-7.9982853 18.2351279 17.4143554 -0.4726388 0.6674626 0.5754183
-9.4581627 18.1635894 16.4398618 -0.4112880 0.6181628 0.6698633
-10.9701303 18.2611639 15.5457409 -0.3489087 0.5675941 0.7457209
-12.5204307 18.5076535 14.7271759 -0.3014622 0.5558725 0.7746782
-14.0895287 18.8558516 13.9649013 -0.2283946 0.5291619 0.8172047
-15.6795309 19.3342489 13.2766904 -0.2067598 0.5131920 0.8329972
-17.2648303 19.8587073 12.6223592 -0.2430991 0.4936065 0.8350182
-18.7932848 20.1956777 11.8783480 -0.3098826 0.4821601 0.8194477
-20.2543991 20.2464045 10.9850783 -0.5538101 0.3943887 0.7333157
-21.6323669 19.8479764 9.8433093 -0.7939329 0.2985818 0.5296409
-22.8673663 18.5084795 8.1610590 -0.9163729 0.2307171 0.3271549
-23.9103591 15.5968196 5.5461468 -0.9642988 0.2488627 0.0905272
-25.0497934 12.7066037 2.8844115 -0.8825695 0.4700988 -0.0088412
-26.3992500 10.8138853 0.7584511 -0.7935970 0.5979105 0.1127246
-27.8583489 9.4023821 -1.1143215 -0.7886713 0.5838468 0.1926668
-29.3734334 8.1148090 -2.9394999 -0.8374334 0.4667939 0.2842688
-30.9063399 6.4861755 -5.0047532 -0.9044973 0.2875306 0.3149775
-32.4049322 3.2269913 -8.1419110 -0.9748262 0.0236662 0.2217067
22.6901800 0.5302636 27.8278797 0.2823050 0.5916487 0.7551527
20.0540978 2.1871223 27.2239432 0.2189034 0.6884043 0.6915062
17.6334045 3.5312292 26.5549180 0.2704428 0.7310474 0.6264426
15.0022769 5.3765003 26.0756831 0.4564671 0.6340263 0.6242182
12.0746946 7.9476637 25.8766358 0.4986882 0.6392008 0.5854335
9.3384139 10.2868894 25.6493523 0.5217147 0.6645374 0.5349802
0.6841937 19.3977478 26.0353091 0.4337338 0.8205674 0.3722152
-1.1063581 20.2340085 25.4385332 0.1098781 0.9170569 0.3833189
-2.5155341 20.1689352 24.5022725 -0.3988181 0.8976054 0.1877465
-3.7016338 19.5078278 23.3230373 -0.5507278 0.8213967 0.1483457
-4.8495212 18.6829460 22.0623906 -0.6584627 0.7412855 0.1300875
-6.0179250 17.8414320 20.7779933 -0.6510107 0.7118989 0.2634105
-7.2770675 17.1935448 19.5609338 -0.5953660 0.6734508 0.4381819
-8.6335999 16.7897954 18.4395789 -0.5425173 0.6474177 0.5352805
-10.0793987 16.6419442 17.4266715 -0.4565862 0.6113905 0.6463209
-11.5760827 16.6573106 16.4867742 -0.3713646 0.5885779 0.7180977
-13.1268491 16.8770566 15.6444144 -0.2836061 0.5646620 0.7750641
-14.7019861 17.2215450 14.8670683 -0.2432523 0.5563422 0.7945513
-16.2902625 17.6682760 14.1473472 -0.2144746 0.5280815 0.8216633
-17.8691102 18.1364544 13.4474468 -0.2787339 0.5112417 0.8129818
-19.3934273 18.4090539 12.6559713 -0.4256616 0.4825246 0.7654948
-20.8410207 18.3177313 11.6783953 -0.6495692 0.4096752 0.6404890
-22.1865113 17.6130801 10.3699161 -0.8324824 0.2933429 0.4700245
-23.3904492 15.8531478 8.4704365 -0.9464468 0.1876490 0.2627286
-24.5512885 13.3829217 6.1400503 -0.9301663 0.3337536 0.1529678
-25.8258739 11.1969977 3.9209018 -0.8699716 0.4812011 0.1076795
-27.2152492 9.4308329 1.8997206 -0.8273765 0.5411897 0.1502062
-28.6688343 7.7516193 -0.1061107 -0.8682723 0.4396433 0.2298194
-30.1502599 5.7350705 -2.3472471 -0.9156513 0.2303571 0.3294211
-31.5544064 1.3629529 -6.0590740 -0.9361284 -0.1671803 0.3093773
22.0962993 -1.2200437 29.1212843 0.2832744 0.4053555 0.8691620
19.2227176 0.9158717 28.6222806 0.2351792 0.6188928 0.7494414
16.6015550 2.6862471 28.0567819 0.3634683 0.6550464 0.6624236
13.8915948 4.7503968 27.6171057 0.5016866 0.6522529 0.5682224
10.8525516 7.6425845 27.4820731 0.5419215 0.6526565 0.5294909
-0.3783111 19.1703977 27.5037341 0.2550936 0.8656823 0.4307220
-2.0166929 19.6775745 26.7785648 -0.0914991 0.9039672 0.4176976
-3.3595008 19.4513556 25.7861761 -0.4793111 0.8517861 0.2114742
-4.5350705 18.7481251 24.6041148 -0.6104628 0.7861652 0.0963298
-5.6492520 17.8060766 23.3129163 -0.7274861 0.6825307 0.0701127
-6.7598083 16.7643364 21.9621990 -0.7196695 0.6718312 0.1752671
-7.9509678 15.8726025 20.6533528 -0.6386000 0.6412369 0.4254471
-9.2592104 15.2747328 19.4524356 -0.5930349 0.6238355 0.5090568
-10.7062970 15.0948339 18.4225978 -0.4757484 0.6138414 0.6299700
-12.2055445 15.0860773 17.4657864 -0.3819740 0.6239567 0.6817433
-13.7623612 15.3012166 16.6112821 -0.2521345 0.6223543 0.7410150
-15.3484126 15.6661610 15.8311212 -0.2300476 0.5997735 0.7663875
-16.9356660 16.0873731 15.0850896 -0.2305641 0.5721199 0.7870953
-18.5022862 16.4728190 14.3299724 -0.3458675 0.5235349 0.7786443
-20.0110054 16.6203078 13.4640391 -0.4729855 0.4966348 0.7277627
-21.4164303 16.2098202 12.3176493 -0.7653198 0.3203781 0.5582503
-22.7114475 15.0338759 10.7666574 -0.8816433 0.2271643 0.4136441
-23.9166426 12.9856368 8.7317495 -0.9139840 0.2336182 0.3317465
-25.2122447 11.1369329 6.7632047 -0.8824838 0.3469395 0.3175772
-26.5841728 9.4468238 4.8445709 -0.8600473 0.4476189 0.2448589
-28.0045427 7.7076925 2.8647983 -0.8797652 0.4284197 0.2060816
-29.4277517 5.3389239 0.4927827 -0.9491864 0.2431634 0.1997918
18.5698752 -0.7147264 29.9280256 0.3075791 0.5403361 0.7832190
15.6654384 1.6607493 29.4997642 0.4605724 0.6150474 0.6399920
9.6822345 7.2673526 29.0422035 0.5546156 0.6586271 0.5085390
0.6650200 17.3508993 29.3256849 0.5032555 0.6973041 0.5103929
-1.2974490 18.6286102 28.8413652 0.1268757 0.8089677 0.5739981
-2.8260881 18.8821354 28.0223753 -0.3077224 0.8453749 0.4366328
-4.1470048 18.5943079 27.0127918 -0.5790446 0.7607762 0.2931330
-5.3153610 17.8496214 25.8279323 -0.7417066 0.6448221 0.1845963
-6.4006050 16.7903724 24.5084738 -0.7898563 0.5983825 0.1344077
-7.4395752 15.4852212 23.0719313 -0.8436878 0.5058192 0.1798270
-8.5766319 14.3669926 21.6844706 -0.6843699 0.5540707 0.4739657
-9.8874481 13.7252965 20.4705508 -0.5321491 0.5612953 0.6338493
-11.3566852 13.5852014 19.4548342 -0.4476047 0.6296419 0.6349812
-12.8806513 13.6383379 18.5194687 -0.3021784 0.6727308 0.6753677
-14.4523234 13.8928884 17.6737835 -0.2555294 0.6776301 0.6895811
-16.0380427 14.2430249 16.8761108 -0.2407531 0.6478394 0.7227323
-17.6042339 14.5524518 16.0665848 -0.2991700 0.5967284 0.7445888
-19.1528268 14.8213149 15.2440680 -0.3928601 0.5549429 0.7332799
-20.6194337 14.6862900 14.2330400 -0.6969304 0.3848505 0.6051265
-21.9617933 13.7810191 12.8421335 -0.8335956 0.2702333 0.4817596
-23.1923343 11.9497737 10.9707188 -0.8977585 0.1992134 0.3928661
-24.5055407 10.3068109 9.1589810 -0.8686675 0.2896511 0.4018943
-25.9006686 8.9191395 7.4472991 -0.8484422 0.3600981 0.3879114
-27.3283974 7.4291142 5.6539742 -0.8671163 0.3881381 0.3121829
-28.7581789 5.4396375 3.5619000 -0.9400315 0.2508017 0.2311695
-29.6736373 -4.4020539 -2.8801804 -0.9946504 -0.0487654 0.0910635
8.4419458 7.0854647 30.6364721 0.5139403 0.6347797 0.5769923
-0.1922578 16.6254667 30.6099536 0.2240387 0.6127517 0.7578536
-2.0326153 17.6368504 30.0202290 -0.0628698 0.6805663 0.7299842
-3.5318314 17.8165665 29.1716806 -0.4100081 0.6798546 0.6080223
-4.8287291 17.4454825 28.1367343 -0.6964340 0.5587360 0.4503263
-5.9772803 16.6069607 26.9287844 -0.8029472 0.5033219 0.3192849
-6.9961242 15.2918958 25.5308009 -0.9064796 0.3102109 0.2864680
-7.9269075 13.5633157 23.9523781 -0.8635254 0.1549458 0.4799121
-9.0754146 12.3905406 22.5534386 -0.6017857 0.2930415 0.7429540
-10.4892335 12.0350038 21.4531906 -0.4114402 0.5492647 0.7273412
-12.0347883 12.1351183 20.5297500 -0.2843082 0.6717280 0.6840689
-13.6091606 12.3628261 19.6609411 -0.2389152 0.7306750 0.6395574
-15.1768103 12.5915064 18.7969535 -0.2164142 0.7667928 0.6043126
-16.7433649 12.8471032 17.9490429 -0.2791058 0.6851289 0.6728287
-18.2834495 13.0108931 17.0654620 -0.3903120 0.6118461 0.6879687
-19.7889214 13.0169178 16.1136839 -0.5533928 0.5115495 0.6573230
-21.1927470 12.4340360 14.8898546 -0.7900638 0.3319939 0.5153438
-22.4715193 10.9396149 13.2244491 -0.8775556 0.2855370 0.3851814
-23.7625486 9.2057177 11.4144117 -0.8784683 0.2791106 0.3878023
-25.1491664 7.8050959 9.7341822 -0.8359053 0.2984282 0.4606548
-26.5878151 6.4835793 8.0661459 -0.8452467 0.2658775 0.4635377
-28.0282337 4.7521478 6.1627301 -0.9040115 0.2044841 0.3754323
-29.2278513 -0.6634508 2.3066908 -0.9828808 -0.0669508 0.1716476
10.0495356 4.1526444 32.4903088 0.4412667 0.6272691 0.6417298
7.5563187 6.1413533 31.9980207 0.3274974 0.5416000 0.7742188
-0.6718192 14.9480488 31.6025508 0.1193461 0.3579354 0.9260879
-2.5465151 16.0524224 31.0181849 -0.2401780 0.4755916 0.8462430
-4.0338891 16.1770537 30.1427824 -0.5577846 0.4538001 0.6949401
-5.2983602 15.6677825 29.0615032 -0.7388266 0.3734809 0.5609343
-6.3454415 14.4534801 27.7318794 -0.8954892 0.1131741 0.4304540
-6.8089376 11.2700298 25.6936684 -0.7374899 -0.2835287 0.6129602
-7.7058748 9.2074213 23.9945382 -0.4505637 -0.0421964 0.8917465
-9.4099781 9.7586070 23.2153282 -0.3092308 0.3790328 0.8721872
-11.1086684 10.3518857 22.4626143 -0.2084554 0.5672579 0.7967213
-12.7560912 10.8144358 21.6708046 -0.1266936 0.7179316 0.6844874
-14.3822678 11.2468669 20.8759733 -0.1379183 0.7921157 0.5945849
-15.9623295 11.5318163 20.0295985 -0.1704775 0.8157410 0.5527242
-17.5070720 11.6886843 19.1354594 -0.3034736 0.7771671 0.5512848
-18.9974598 11.5885225 18.1349858 -0.5449342 0.6625371 0.5138982
-20.4258364 11.1220851 16.9731821 -0.6914374 0.5406695 0.4791563
-21.7896188 10.1702898 15.5864445 -0.8453543 0.3890804 0.3660499
-23.0708834 8.4605289 13.8367896 -0.9000624 0.2897580 0.3254658
-24.3578578 6.3980331 11.8902566 -0.8909288 0.1637636 0.4235886
-25.7326823 4.5478449 10.0043044 -0.8413603 0.0670839 0.5362953
-27.1685535 2.7416665 8.1037322 -0.8498147 0.0244839 0.5265126
-28.5139624 -0.7543051 5.3347561 -0.9458675 -0.0289039 0.3232634
-29.7118659 -7.8352227 0.6952571 -0.9937493 0.0424724 0.1032391
9.2107355 3.0476964 33.8393861 0.1617351 0.5392501 0.8264690
7.0556274 4.2961239 33.1272196 -0.0530268 0.5144173 0.8558990
5.1898107 4.9306013 32.2764253 -0.3533169 0.2599467 0.8986628
3.7321555 4.5795276 31.1674250 -0.6401163 -0.0090562 0.7682247
2.8464211 2.6939045 29.6160322 -0.7306733 -0.0462481 0.6811590
-0.4849465 -1.9704907 25.0549328 -0.3949397 0.3297515 0.8574885
-2.2900344 -1.6441025 24.0810006 -0.1881173 0.3194951 0.9287275
-4.3909633 -0.3126864 23.4467542 0.0197588 0.2522901 0.9674499
-11.7869218 8.8377021 23.5560948 0.1757475 0.4679573 0.8660997
-13.5643036 9.8205634 22.9442162 0.0561322 0.7867579 0.6147042
-15.2253309 10.4239912 22.2070534 -0.0198785 0.8374920 0.5460878
-16.7949528 10.6842704 21.3478180 -0.1759813 0.8857386 0.4295320
-18.3100076 10.7087023 20.3994434 -0.3559639 0.8475607 0.3936123
-19.7502229 10.3282175 19.2860743 -0.6063896 0.7191933 0.3391941
-21.1278950 9.5066997 17.9809580 -0.7841159 0.5426842 0.3010915
-22.4335486 8.0513799 16.3889525 -0.8817177 0.3913789 0.2634321
-23.5886856 5.1840324 14.1514953 -0.9513511 -0.0211091 0.3073848
-24.6456915 0.8095272 11.1854332 -0.7810555 -0.0765189 0.6197558
-26.1095565 -1.0132924 9.3002130 -0.7895001 -0.0230219 0.6133186
-27.5993824 -3.1524587 7.2325234 -0.8792072 -0.0100587 0.4763335
-29.0158800 -7.0776885 4.2741410 -0.9629424 0.0252123 0.2685262
8.8476993 0.8273067 34.9330909 0.0110597 0.3917016 0.9200258
6.7977141 1.8149191 34.1284151 -0.4141587 0.2566821 0.8732622
5.2446225 1.6279930 33.0492967 -0.6148047 0.1649176 0.7712441
4.0366149 0.5252430 31.7293143 -0.8422487 0.0401214 0.5375941
3.0899622 -1.3775385 30.1734833 -0.8536837 0.0666124 0.5165142
2.0259347 -3.1093864 28.6290066 -0.7961707 0.2208567 0.5633245
0.7114221 -4.2539060 27.2204878 -0.5681874 0.4175712 0.7090821
-0.9188775 -4.5274053 26.0489255 -0.3788062 0.4975734 0.7803375
-2.8350265 -3.9001272 25.1482513 -0.0594562 0.5125120 0.8566192
-4.9751824 -2.4450445 24.5210622 0.1998631 0.4755837 0.8566650
-12.5554527 7.6422848 24.7764560 0.3342933 0.5759622 0.7459997
-14.4015757 8.9498452 24.2617373 0.2086456 0.7421061 0.6369816
-16.0838901 9.6861676 23.5641515 0.0318837 0.8602942 0.5087999
-17.6513799 9.9659641 22.7102140 -0.2129461 0.8896437 0.4039654
-19.1361787 9.8509598 21.7105280 -0.4952792 0.8080873 0.3188941
-20.5376932 9.2354800 20.5124167 -0.6791568 0.6882661 0.2550210
-21.8580885 7.9913015 19.0501328 -0.8886424 0.4130957 0.1991651
-22.8962205 4.5196615 16.6486326 -0.9737992 -0.1052870 0.2015681
-23.3406404 -4.3818473 11.8977497 -0.6346124 0.0066002 0.7728024
-24.9938694 -4.9847596 10.5462614 -0.6717114 0.0599757 0.7383811
-26.6299020 -5.9461965 9.0256873 -0.7957475 0.1341507 0.5905840
-28.1750652 -8.3404565 6.8434209 -0.9355071 0.0246692 0.3524456
8.9948326 -2.6875248 35.7817318 -0.0904109 0.1236503 0.9881986
6.9152806 -1.6880145 34.9420920 -0.4803865 0.0955158 0.8718403
5.3589371 -1.9665458 33.8211732 -0.6197118 0.0312849 0.7842057
4.1510895 -3.2057390 32.4604180 -0.8187632 0.0733915 0.5694212
2.9799499 -4.6510854 31.0240402 -0.8013484 0.1234948 0.5853117
1.7431985 -6.0300516 29.5778888 -0.6673168 0.2714509 0.6935435
0.2537985 -6.7615877 28.2820926 -0.5635603 0.4452147 0.6958331
-1.5171323 -6.6609331 27.2069748 -0.2084317 0.5054725 0.8372895
-3.5419925 -5.6964440 26.3852267 0.1624089 0.5805419 0.7978687
-5.8331988 -3.6881627 25.8953123 0.4101424 0.5978475 0.6887391
-8.1503519 -1.3607567 25.5420488 0.5130232 0.5152394 0.6865388
-13.3540433 6.5552392 26.0389850 0.4577363 0.5284738 0.7149776
-15.2548990 8.1608052 25.6034781 0.2182926 0.7106564 0.6688167
-16.9297366 8.9098175 24.9003889 0.0022552 0.8279053 0.5608633
-18.4853614 9.1572728 24.0322853 -0.3483567 0.8210152 0.4523070
-19.9398627 8.8795348 22.9763519 -0.5238916 0.7769073 0.3492172
-21.3036623 7.9976090 21.6880774 -0.8261340 0.5013576 0.2571833
-22.4610327 5.5546069 19.7817763 -0.9867825 0.0379909 0.1575338
-22.1679657 -8.2365843 13.3509131 -0.5554453 0.2456361 0.7944453
-23.9263488 -8.2702374 12.2193166 -0.5919068 0.2390988 0.7697260
-25.6470088 -8.6750494 10.9335746 -0.7084117 0.2118330 0.6732605
-27.2678587 -10.3272854 9.1126558 -0.9172715 0.0371420 0.3965268
5.9602921 -7.0165551 34.3466696 -0.5125398 -0.1915845 0.8370175
4.5594222 -7.9210173 33.0438663 -0.6322597 -0.1783887 0.7539398
3.2980528 -9.3064468 31.6092969 -0.5775799 -0.2554997 0.7753202
0.1216482 -10.3960257 29.0954486 -0.4653162 -0.3110116 0.8287054
-2.0504226 -9.0834584 28.3187223 0.0972481 0.2513912 0.9629877
-4.4367033 -6.8894979 27.8097437 0.4456360 0.4905375 0.7488534
-6.8367136 -4.4084324 27.4235335 0.5361654 0.5989343 0.5948145
-9.2091975 -1.7514188 27.1353583 0.5864891 0.5840063 0.5612194
-16.0598283 7.1623676 26.8718077 0.0630346 0.6742555 0.7358031
-17.7262595 7.9041885 26.1544541 -0.1394791 0.7402744 0.6576773
-19.2535334 8.0073518 25.2329035 -0.4635530 0.6990006 0.5445336
-20.6874725 7.5763467 24.1259395 -0.7345546 0.5465376 0.4021519
-21.9225448 5.7756786 22.5178959 -0.9682678 0.1187438 0.2199032
-21.0937240 -11.1674480 15.2846659 -0.6338117 0.3709834 0.6787150
-22.8505048 -11.4232242 14.0531590 -0.5689165 0.3160110 0.7592569
-24.6225620 -11.6094339 12.8438193 -0.6718122 0.2483750 0.6978382
-26.3091451 -12.7466209 11.2532055 -0.8617307 0.0650988 0.5031722
-5.4589021 -7.6275350 29.3556906 0.5171887 0.4452840 0.7309159
-7.9160793 -4.8099009 29.0270402 0.5680216 0.5877219 0.5761376
-10.2425780 -2.1895713 28.6951532 0.5886433 0.5837141 0.5592647
-14.8588204 3.9306459 28.4386293 0.3826286 0.4637871 0.7990600
-16.7808933 5.7496078 28.0134623 -0.0021331 0.5026431 0.8644914
-18.4561682 6.5422022 27.2968178 -0.3138458 0.5961508 0.7389892
-19.9432238 6.3874068 26.2860141 -0.6763296 0.4709971 0.5663391
-21.2320179 4.9636249 24.8470404 -0.9217135 0.0750889 0.3805336
-20.1401759 -13.1318570 17.6407170 -0.7457178 0.3954435 0.5362176
-21.8353814 -13.9380377 16.2135479 -0.6763328 0.3538359 0.6460450
-23.5835484 -14.4910289 14.8633054 -0.7126820 0.1722832 0.6800022
-25.2691658 -15.8187519 13.2145590 -0.8167670 0.0275974 0.5763073
-8.9354328 -5.3949936 30.5635881 0.5620688 0.5288496 0.6359219
-11.2576036 -2.6528353 30.2300209 0.5310728 0.5603659 0.6355720
-13.4374370 -0.1950659 29.8685763 0.4371876 0.5567109 0.7063568
-15.5327430 2.1967805 29.5333548 0.2674479 0.3928812 0.8798386
-17.4079155 3.8087551 29.0137375 -0.0455610 0.4135790 0.9093276
-19.0401062 4.3256889 28.1932708 -0.5468934 0.3115145 0.7770883
-17.8536254 -12.1410639 22.1042576 -0.9466579 0.2823125 0.1553657
-19.2869330 -14.3724146 20.2680865 -0.8580566 0.2727673 0.4351286
-20.8340613 -16.2412414 18.5103434 -0.7671816 0.1687389 0.6188373
-22.3815107 -18.5504641 16.5694222 -0.7157754 -0.1373809 0.6846840
-9.8858145 -6.2249799 32.0268291 0.4891908 0.4710650 0.7340232
-12.1505833 -3.6019759 31.6260762 0.4187081 0.5468897 0.7249794
-14.2381566 -1.4591980 31.1480992 0.2552801 0.5065705 0.8235402
-16.1881096 0.2989261 30.6055330 0.1189432 0.4566101 0.8816801
-17.9272327 1.1863503 29.8529041 -0.4890786 0.2711240 0.8290319
-19.1403329 -0.8675109 28.2725902 -0.9701892 -0.0209769 0.2414391
-12.9569009 -4.9403104 32.9272950 0.2427720 0.4392082 0.8649612
-14.9651930 -3.1074243 32.3401524 0.0442152 0.4262877 0.9035064
-16.7877653 -1.9812967 31.6060718 -0.2371289 0.3930998 0.8883932
-18.3259868 -2.2957399 30.5127498 -0.7710850 0.1176477 0.6257691
-13.5233353 -7.4564799 33.9744950 -0.0004055 0.2726959 0.9621002
-15.5257502 -5.6719378 33.3375096 -0.1482706 0.3355827 0.9302688
-17.2509489 -5.1478255 32.4293128 -0.5541175 0.1939583 0.8095270
-18.3745477 -8.1544221 30.6504600 -0.9596150 -0.0973184 0.2639471
-18.9729255 35.4116767 1.9645170 -0.5594500 0.7902137 0.2501557
-19.5043369 35.3480399 -0.0236049 -0.6527604 0.7571053 0.0263704
-19.2848085 35.3436667 -1.7781372 -0.6551004 0.7194305 -0.2307883
-18.4903851 35.3843290 -3.3819602 -0.5699262 0.7162223 -0.4027527
-17.0268344 35.4770291 -4.8422513 -0.4539941 0.7133983 -0.5338092
-14.3464725 35.6639785 -6.0736149 -0.1822102 0.8046046 -0.5651645
-20.4589423 33.6252776 3.3568536 -0.6726980 0.6379313 0.3748613
-21.1661266 33.5657553 1.3117260 -0.7888394 0.6008758 0.1291536
-21.1534996 33.5516045 -0.4894038 -0.8077085 0.5842175 -0.0793530
-20.7409216 33.5625404 -2.1698157 -0.7591130 0.5812249 -0.2931298
-19.9617436 33.5963144 -3.7585253 -0.7081281 0.5452091 -0.4486666
-18.7596866 33.6562705 -5.2610175 -0.5802438 0.5669502 -0.5847090
-16.9738311 33.7522137 -6.6635782 -0.4726917 0.5287510 -0.7049715
-14.0516987 33.9180941 -7.8845102 -0.2147522 0.6051040 -0.7666359
-21.8243392 31.8593625 2.9363069 -0.8159918 0.4886037 0.3089075
-22.2140438 31.8328298 1.0049501 -0.9095448 0.4144600 0.0308420
-22.0707520 31.8311870 -0.7466923 -0.9107568 0.3651057 -0.1929245
-21.5835669 31.8455348 -2.3971980 -0.8730623 0.3346356 -0.3546566
-20.7868873 31.8741981 -3.9729748 -0.7968015 0.3505377 -0.4921694
-19.6849059 31.9169104 -5.4907584 -0.6939333 0.3637516 -0.6214028
-18.0997266 31.9818089 -6.9272925 -0.5605297 0.3671947 -0.7422765
-15.8621940 32.0765742 -8.2727483 -0.4064535 0.3812762 -0.8303156
-11.9231443 32.2493048 -9.3667981 -0.1361311 0.4919973 -0.8598878
-21.9219840 30.1668751 4.7536507 -0.8151579 0.3662631 0.4487415
-22.6766779 30.1422877 2.6796904 -0.9421364 0.2939671 0.1611283
-22.7595394 30.1380544 0.8500356 -0.9743812 0.2182217 -0.0544103
-22.5476048 30.1427464 -0.8784834 -0.9554429 0.2079812 -0.2094580
-22.0105769 30.1572640 -2.5132820 -0.9038744 0.2107977 -0.3722572
-21.2116652 30.1796830 -4.0870449 -0.8373852 0.1678749 -0.5201962
-20.1839171 30.2089934 -5.6208382 -0.7595267 0.1869931 -0.6230191
-18.6956778 30.2521699 -7.0759612 -0.6118970 0.2262776 -0.7578790
-16.6713534 30.3114689 -8.4602756 -0.5117844 0.2225815 -0.8297796
-13.7931843 30.3964371 -9.7419923 -0.3201381 0.3363385 -0.8856569
-8.7136931 30.5476036 -10.7384463 -0.0291959 0.6681642 -0.7434408
-22.6377783 28.4492422 4.5342112 -0.9309731 0.2245028 0.2879020
-23.0697743 28.4482910 2.5700072 -0.9849549 0.1625489 0.0586659
-23.0280145 28.4538101 0.7789162 -0.9919554 0.0975533 -0.0806707
-22.7263933 28.4629003 -0.9253050 -0.9677219 0.0593326 -0.2449367
-22.2033985 28.4750633 -2.5666661 -0.9330984 0.0512404 -0.3559521
-21.3893516 28.4913042 -4.1392138 -0.8625486 0.0569638 -0.5027575
-20.3759865 28.5103777 -5.6792520 -0.7681086 0.0742190 -0.6360037
-18.9570727 28.5352120 -7.1521507 -0.6606715 0.0804418 -0.7463526
-17.0499120 28.5670297 -8.5616732 -0.5365343 0.1267052 -0.8343121
-14.5258571 28.6077180 -9.9084028 -0.4358097 0.1959296 -0.8784541
-11.5271950 28.6553386 -11.2461207 -0.3310985 0.4794421 -0.8127171
-8.0102190 28.7105764 -12.5909252 -0.2842798 0.6956770 -0.6597109
-21.9613372 26.7278433 6.6446334 -0.8213030 0.2145798 0.5285990
-22.9406824 26.7427134 4.4542994 -0.9683882 0.0722878 0.2387440
-23.2132025 26.7552800 2.5403157 -0.9998097 0.0190652 -0.0041320
-23.0453140 26.7665061 0.7838503 -0.9895336 -0.0454273 -0.1369658
-22.7123472 26.7772527 -0.9171270 -0.9562660 -0.0526194 -0.2877264
-22.1030503 26.7873023 -2.5415727 -0.9209410 -0.0749809 -0.3824207
-21.3297704 26.7970119 -4.1319964 -0.8549776 -0.0730762 -0.5134912
-20.3566778 26.8063554 -5.6884072 -0.7909648 -0.0191384 -0.6115623
-19.0013249 26.8150091 -7.1814292 -0.6907991 -0.0045006 -0.7230327
-17.2026489 26.8229737 -8.6180571 -0.5857096 0.0466854 -0.8091754
-14.9052571 26.8302848 -10.0101215 -0.5293998 0.1572274 -0.8336758
-12.5344349 26.8378674 -11.4525265 -0.5242668 0.2945712 -0.7989820
-10.3796594 26.8462318 -12.9914205 -0.5100011 0.5520075 -0.6596867
-8.3945310 26.8552306 -14.6092738 -0.4600406 0.7107528 -0.5321589
-6.4222751 26.8645733 -16.2788700 -0.3308026 0.8459693 -0.4182173
-4.4500178 26.8742341 -17.9977194 -0.1575977 0.9657761 -0.2060084
-2.0831321 26.8837049 -19.7319111 -0.0709784 0.9896015 -0.1251039
-22.4404745 25.0000150 6.5030485 -0.9069952 0.1502025 0.3934448
-23.0936376 25.0318244 4.4251708 -0.9858055 -0.0078253 0.1677089
-23.1713681 25.0520222 2.5700865 -0.9970168 -0.0429006 -0.0641641
-22.9083261 25.0654596 0.8355725 -0.9709351 -0.1421923 -0.1925266
-22.3931592 25.0740193 -0.8218966 -0.9348597 -0.1718683 -0.3106424
-21.8176604 25.0814735 -2.4669614 -0.9101543 -0.1740901 -0.3759146
-21.0875142 25.0860822 -4.0791117 -0.8909902 -0.1364902 -0.4330206
-20.1369061 25.0867019 -5.6509316 -0.8191529 -0.0756025 -0.5685708
-18.9276381 25.0827426 -7.1853465 -0.7206219 -0.0239723 -0.6929137
-17.2532988 25.0705676 -8.6542184 -0.6339895 0.0496742 -0.7717446
-15.2377210 25.0526532 -10.1032763 -0.5902580 0.1858719 -0.7855234
-13.2443672 25.0356807 -11.6092797 -0.6208153 0.3048990 -0.7222361
-11.5713902 25.0249239 -13.2149142 -0.6855950 0.4475903 -0.5741276
-10.2211955 25.0202577 -14.9040970 -0.6396827 0.5822525 -0.5017849
-9.1483638 25.0207250 -16.6552825 -0.6196405 0.6923840 -0.3696620
-8.1078893 25.0219593 -18.4301596 -0.5595065 0.7565525 -0.3384979
-7.0287735 25.0227292 -20.2209780 -0.5648250 0.7623000 -0.3160244
-5.9495681 25.0237038 -22.0319889 -0.5415616 0.7503218 -0.3791150
-4.5866372 25.0201274 -23.8481810 -0.4391990 0.8034816 -0.4018974
-2.4743222 25.0044049 -25.6657392 -0.3283722 0.7753019 -0.5395170
-22.6720217 23.2674565 6.4497556 -0.9586864 0.0597297 0.2781237
-23.0902508 23.3087346 4.4490917 -0.9964857 -0.0002541 0.0837623
-23.0366104 23.3324605 2.6297893 -0.9872759 -0.0756694 -0.1398586
-22.6159121 23.3427717 0.9344752 -0.9591555 -0.1443658 -0.2432679
-22.0613584 23.3482942 -0.7230140 -0.9322635 -0.1478880 -0.3301725
-21.4491394 23.3518364 -2.3701205 -0.9129367 -0.1829070 -0.3648172
-20.7663816 23.3529849 -4.0065767 -0.9085933 -0.1173960 -0.4008446
-19.9219453 23.3485923 -5.6147261 -0.8310127 -0.0418339 -0.5546781
-18.8778468 23.3374501 -7.1945795 -0.7707024 0.0522487 -0.6350495
-17.3987132 23.3115535 -8.7093654 -0.6874604 0.1171873 -0.7167045
-15.6300052 23.2762061 -10.2073289 -0.6263430 0.2815767 -0.7269175
-13.8770584 23.2420278 -11.7530343 -0.6508883 0.3206659 -0.6881263
-12.4432474 23.2192849 -13.3902338 -0.7124512 0.4134631 -0.5669758
-11.3189375 23.2074250 -15.1013535 -0.7753636 0.4629464 -0.4295252
-10.5217513 23.2068197 -16.8728534 -0.7605732 0.5426970 -0.3563823
-9.7299719 23.2065569 -18.6565468 -0.7508751 0.5761173 -0.3229172
-8.8414874 23.2032626 -20.4435324 -0.6868146 0.6129606 -0.3905956
-7.7949386 23.1949893 -22.2341921 -0.6716545 0.5970557 -0.4386396
-6.6074256 23.1823966 -24.0367717 -0.6214376 0.5688877 -0.5386855
-4.8807113 23.1527022 -25.8435105 -0.5663578 0.5078486 -0.6490984
-2.1745406 23.0921220 -27.6706212 -0.3587471 0.5154755 -0.7781937
-21.8560785 21.4407454 8.6663293 -0.8220841 0.2215965 0.5244738
-22.8747626 21.5293264 6.4068197 -0.9666201 0.0989827 0.2363219
-23.0532783 21.5719817 4.4845546 -0.9994348 0.0253059 0.0221293
-22.8464329 21.5937419 2.7074344 -0.9858452 -0.0618640 -0.1558273
-22.4030642 21.6028551 1.0093959 -0.9561530 -0.0811899 -0.2813887
-21.7617979 21.6015786 -0.6332726 -0.9326088 -0.1127023 -0.3428396
-21.1533676 21.6021619 -2.2927759 -0.9393525 -0.0224377 -0.3422185
-20.5491026 21.6030826 -3.9601236 -0.9316696 -0.0006740 -0.3633060
-19.8710884 21.6003099 -5.6168777 -0.8980285 0.0105790 -0.4398100
-19.0111379 21.5883536 -7.2434401 -0.8138983 0.1997159 -0.5456034
-17.7822028 21.5578275 -8.8118840 -0.6853742 0.3009638 -0.6630859
-16.2597147 21.5128903 -10.3544807 -0.6493211 0.3768032 -0.6606068
-14.6545216 21.4644380 -11.9204586 -0.6546409 0.4030564 -0.6395239
-13.2913534 21.4288250 -13.5616264 -0.7289189 0.4316981 -0.5313323
-12.2977121 21.4121877 -15.2822908 -0.7838741 0.4479843 -0.4299435
-11.4436193 21.4027951 -17.0374081 -0.8280059 0.4347735 -0.3540879
-10.7307011 21.4006023 -18.8201064 -0.8135261 0.4465885 -0.3724701
-9.9105916 21.3933158 -20.6028420 -0.8091991 0.4199906 -0.4108586
-8.9536236 21.3795803 -22.3886959 -0.7746858 0.3956644 -0.4932662
-7.6798328 21.3507940 -24.1749383 -0.7188301 0.3687257 -0.5893425
-6.0020990 21.3030261 -25.9733618 -0.6421120 0.3224736 -0.6954875
-3.4814830 21.2155977 -27.7942340 -0.4259209 0.2552536 -0.8680075
-5.0188039 18.2102593 26.3710657 -0.6700560 0.7015976 0.2424579
-22.5469360 19.7076320 8.4432230 -0.9219619 0.2025176 0.3301105
-23.0738586 19.7858865 6.3652720 -0.9840068 0.1113915 0.1390055
-23.1119503 19.8288517 4.4877468 -0.9953320 0.0631021 -0.0730229
-22.8266206 19.8487341 2.7305497 -0.9771686 0.0345483 -0.2096377
-22.3488205 19.8550655 1.0363518 -0.9586605 0.0252752 -0.2834276
-21.7199676 19.8509480 -0.6170113 -0.9451299 0.0075597 -0.3266074
-21.1506346 19.8511079 -2.2938811 -0.9513503 0.0393351 -0.3055900
-20.6553530 19.8564745 -3.9946693 -0.9542599 0.1208772 -0.2734535
-20.1333273 19.8600724 -5.6919916 -0.9265490 0.2750201 -0.2566534
-19.4891945 19.8554472 -7.3666564 -0.7976403 0.4388887 -0.4136988
-18.5514467 19.8311365 -8.9908844 -0.7188194 0.4795431 -0.5033259
-17.2962734 19.7858602 -10.5752350 -0.6169578 0.5319243 -0.5800170
-15.7522014 19.7218688 -12.1402480 -0.5894744 0.5326201 -0.6073185
-14.3163638 19.6658879 -13.7587580 -0.6652443 0.5323465 -0.5235048
-13.2311145 19.6338276 -15.4567167 -0.7274869 0.5160945 -0.4521164
-12.3375021 19.6148445 -17.1981888 -0.8071291 0.4551816 -0.3759685
-11.5666416 19.6042213 -18.9667574 -0.8134548 0.4244420 -0.3976687
-10.6703749 19.5856679 -20.7359066 -0.8082254 0.3661253 -0.4612200
-9.6197188 19.5574356 -22.5096550 -0.8012363 0.2765677 -0.5305947
-8.2313193 19.5078696 -24.2860614 -0.7305525 0.2083424 -0.6502972
-6.3864598 19.4297055 -26.0769097 -0.6329065 0.0801465 -0.7700688
-3.6596379 19.2962827 -27.8955609 -0.4726343 0.0495171 -0.8798664
-5.8067201 16.0911732 28.4020978 -0.7506435 0.4249141 0.5059471
-21.9282894 17.8209176 10.6360098 -0.8324824 0.2933429 0.4700245
-22.9479617 17.9604366 8.3289262 -0.9191764 0.2220653 0.3252719
-23.3481215 18.0438588 6.2969197 -0.9811605 0.1763098 0.0789873
-23.2694959 18.0844360 4.4575084 -0.9802218 0.1777594 -0.0869870
-22.9720700 18.1055713 2.7006925 -0.9749179 0.1243186 -0.1846077
-22.5415458 18.1150230 0.9884995 -0.9392569 0.2314474 -0.2534338
-21.9928408 18.1142646 -0.6905197 -0.9256858 0.2542959 -0.2800702
-21.5192111 18.1200878 -2.3943670 -0.9394669 0.2546173 -0.2292860
-21.1661259 18.1362829 -4.1303897 -0.8823674 0.4455494 -0.1513720
-20.8112234 18.1522674 -5.8637937 -0.8411594 0.4987816 -0.2089683
-20.4261842 18.1656449 -7.5886041 -0.7834811 0.5762033 -0.2326955
-19.7928949 18.1580706 -9.2632012 -0.6695933 0.6631026 -0.3345739
-18.7764416 18.1185546 -10.8758737 -0.5806510 0.6861611 -0.4382093
-17.3812966 18.0479624 -12.4467117 -0.5281765 0.6787849 -0.5101771
-15.8696579 17.9685355 -14.0331676 -0.5254224 0.6827018 -0.5077889
-14.5207013 17.9034653 -15.6771548 -0.6079054 0.6434226 -0.4652509
-13.4336112 17.8606843 -17.3815080 -0.6844863 0.5877049 -0.4313715
-12.4973866 17.8307827 -19.1221451 -0.7523562 0.4843916 -0.4464581
-11.3611725 17.7850342 -20.8628706 -0.7497182 0.3544891 -0.5588024
-10.0486373 17.7255954 -22.6147291 -0.7599200 0.2452284 -0.6019840
-8.3653455 17.6370224 -24.3763506 -0.7033783 0.0624293 -0.7080689
-6.2293884 17.5131962 -26.1623647 -0.6003042 -0.0697033 -0.7967285
-2.8892866 17.2947586 -27.9805101 -0.3699577 -0.1917938 -0.9090360
-6.2809616 14.0009308 28.2616342 -0.8648854 0.0471018 0.4997546
-22.6397227 16.0832690 10.3987050 -0.8778754 0.2408469 0.4139172
-23.3935811 16.2196268 8.1978014 -0.9551187 0.1920183 0.2255597
-23.7216615 16.3096671 6.1930647 -0.9629861 0.2555082 0.0858681
-23.6804355 16.3600372 4.3412861 -0.9678497 0.2356342 -0.0879972
-23.3770844 16.3825612 2.5874692 -0.9380114 0.2983725 -0.1763760
-22.9938757 16.3966477 0.8619301 -0.9119985 0.3514024 -0.2116014
-22.5812748 16.4076545 -0.8540824 -0.8848603 0.4424037 -0.1459495
-22.2117341 16.4230994 -2.5815396 -0.8622880 0.4946515 -0.1085329
-22.0475827 16.4595710 -4.3587340 -0.8343161 0.5461456 -0.0751115
-21.9265074 16.5001828 -6.1371658 -0.7840803 0.6194328 -0.0390011
-21.7675951 16.5366531 -7.8972943 -0.6987227 0.7106707 -0.0820592
-21.4714135 16.5589927 -9.6215290 -0.6062326 0.7627409 -0.2251853
-20.7483971 16.5382890 -11.2646924 -0.5312421 0.7884759 -0.3099799
-19.5725701 16.4725809 -12.8443074 -0.4538272 0.7736666 -0.4421322
-17.9864464 16.3667691 -14.3893659 -0.4526954 0.7399387 -0.4975516
-16.4180777 16.2638637 -15.9758571 -0.4881983 0.7288428 -0.4800527
-15.0576247 16.1825763 -17.6240470 -0.5351952 0.7096573 -0.4582059
-13.7283808 16.1052543 -19.3060645 -0.5911827 0.6151775 -0.5215933
-12.2430891 16.0135577 -21.0048864 -0.6172268 0.4430906 -0.6501552
-10.3682315 15.8850081 -22.7126578 -0.6674937 0.2310220 -0.7078707
-8.1883872 15.7283234 -24.4518778 -0.6197863 -0.0246064 -0.7843848
-5.5327879 15.5274828 -26.2310371 -0.4995568 -0.1713136 -0.8491729
-0.7315976 15.1232157 -28.0440319 -0.2715413 -0.2698595 -0.9238188
-21.9947958 14.1242988 12.6499765 -0.8215576 0.2796161 0.4968480
-23.1587543 14.3341293 10.2372374 -0.9179379 0.1892910 0.3486530
-23.7662441 14.4730082 8.0941125 -0.9459198 0.2065662 0.2501321
-24.1653641 14.5849172 6.0640527 -0.9561430 0.2727031 0.1068813
-24.1683686 14.6472189 4.1988650 -0.9268190 0.3754477 -0.0067509
-23.9598195 14.6831816 2.4170717 -0.9028326 0.4140599 -0.1159641
-23.7182114 14.7148792 0.6527993 -0.8725774 0.4722028 -0.1250327
-23.4096510 14.7382767 -1.0861548 -0.8425461 0.5285674 -0.1035982
-23.2641479 14.7811652 -2.8649994 -0.8232195 0.5618726 -0.0812952
-23.1792299 14.8309914 -4.6495086 -0.7677247 0.6402125 0.0269580
-23.2726822 14.9016840 -6.4639616 -0.7258800 0.6868840 0.0358966
-23.4157916 14.9776793 -8.2715119 -0.6395268 0.7677868 0.0388446
-23.4150488 15.0360706 -10.0315640 -0.5743112 0.8121739 -0.1026659
-22.9464164 15.0390696 -11.6932959 -0.5094143 0.8219114 -0.2548701
-21.9513909 14.9806405 -13.2712116 -0.4332305 0.8075523 -0.4002132
-20.4540779 14.8644715 -14.7954900 -0.4061569 0.7766348 -0.4815340
-18.8391279 14.7359039 -16.3410464 -0.4052879 0.7738817 -0.4866712
-17.2252135 14.6087852 -17.9267426 -0.4414705 0.7523085 -0.4890151
-15.6596041 14.4885161 -19.5566269 -0.4722198 0.6888227 -0.5500290
-13.6448742 14.3182604 -21.1879641 -0.4294354 0.5741877 -0.6970607
-10.9853058 14.0765108 -22.8296876 -0.4587695 0.4058592 -0.7904486
-8.0802797 13.8094120 -24.5315002 -0.4882731 0.1584468 -0.8581864
-4.6754965 13.4887283 -26.2962559 -0.4289701 -0.0269540 -0.9029165
1.6484184 12.8444023 -28.1081837 -0.2770235 -0.0097676 -0.9608135
-21.2187718 12.0933764 15.0142718 -0.7985260 0.3430328 0.4946562
-22.4622514 12.3452329 12.5075001 -0.8818762 0.2035992 0.4252548
-23.4391640 12.5567679 10.1701637 -0.9044805 0.1828828 0.3853166
-24.2873576 12.7480988 7.9343944 -0.9033017 0.3173409 0.2886882
-24.7613982 12.8849183 5.8803504 -0.9290674 0.3327728 0.1615426
-24.8873914 12.9716827 3.9777768 -0.8919482 0.4511187 0.0303381
-24.8277550 13.0317937 2.1548263 -0.8802793 0.4713205 -0.0544561
-24.6767218 13.0787286 0.3725050 -0.8328920 0.5523689 -0.0343456
-24.5637868 13.1305806 -1.4112678 -0.7755896 0.6311533 0.0103107
-24.5787384 13.1996318 -3.2185821 -0.7262900 0.6821023 0.0850842
-24.7634963 13.2913735 -5.0532174 -0.6968650 0.7098855 0.1021847
-25.0173454 13.3917541 -6.8829911 -0.6278400 0.7626701 0.1554064
-25.3723913 13.5050023 -8.7114201 -0.5924834 0.8022171 0.0735608
-25.4162258 13.5752665 -10.4521435 -0.5811318 0.8133297 -0.0279411
-25.0592466 13.5911182 -12.1054129 -0.5372621 0.8086996 -0.2394879
-24.1584930 13.5342129 -13.6686442 -0.4736327 0.7941184 -0.3808517
-22.8563923 13.4245314 -15.1903001 -0.4171154 0.7659765 -0.4891777
-21.1829438 13.2667920 -16.6943001 -0.4076970 0.7594550 -0.5069628
-19.5229488 13.1124002 -18.2421864 -0.4105017 0.7495104 -0.5193482
-17.8054237 12.9519988 -19.8259803 -0.4330114 0.7120421 -0.5527180
-15.8077424 12.7565988 -21.4303147 -0.3930377 0.6641765 -0.6359175
-12.6441181 12.4115381 -23.0123213 -0.3469637 0.5272526 -0.7756423
-8.8169107 11.9839008 -24.6516396 -0.3418384 0.4356394 -0.8326853
-4.8322300 11.5400247 -26.3949235 -0.2345892 0.2954702 -0.9261022
1.2477804 10.8316863 -28.2190745 -0.2803466 0.2884958 -0.9155195
6.8745895 10.1877842 -30.2204946 -0.0642954 0.6110598 -0.7889690
-18.9259740 9.5849527 22.3014685 -0.4986298 0.8117571 0.3040045
-20.0861414 9.8607100 19.6572686 -0.6585554 0.6853724 0.3107562
-21.0926119 10.1088703 17.1460005 -0.7852527 0.5009552 0.3638985
-22.0356838 10.3444512 14.7186605 -0.8676953 0.3184907 0.3816655
-22.9663959 10.5758539 12.3496683 -0.8897709 0.2467840 0.3839341
-23.9409713 10.8121477 10.0153510 -0.8836734 0.2529127 0.3938992
-24.9053027 11.0446255 7.7379801 -0.8905504 0.2940239 0.3470878
-25.4749526 11.2123058 5.6543160 -0.8921940 0.4048144 0.2002879
-25.7493790 11.3318333 3.7078541 -0.8699716 0.4812011 0.1076795
-25.8051910 11.4159435 1.8571522 -0.8328277 0.5513511 0.0490919
-25.8498185 11.4976016 0.0269202 -0.7834541 0.6189381 0.0558146
-25.9265949 11.5835901 -1.7960324 -0.7311976 0.6744598 0.1022452
-26.1134432 11.6859240 -3.6310196 -0.6769118 0.7187193 0.1588488
-26.5949549 11.8328461 -5.5184559 -0.6273630 0.7532787 0.1974508
-27.0686856 11.9772869 -7.3727850 -0.6022278 0.7755521 0.1893161
-27.3707581 12.0942353 -9.1596493 -0.6001878 0.7979360 0.0554320
-27.3163388 12.1559613 -10.8519629 -0.6167798 0.7805434 -0.1016596
-26.8874365 12.1605125 -12.4652555 -0.5819102 0.7744508 -0.2482064
-26.0738032 12.1071418 -14.0172510 -0.5201867 0.7740281 -0.3609518
-24.8932086 11.9993202 -15.5301441 -0.4777773 0.7484603 -0.4599305
-23.4025222 11.8462945 -17.0296563 -0.4116391 0.7455319 -0.5241522
-21.7682680 11.6734385 -18.5496990 -0.3991884 0.7380166 -0.5440406
-20.0028604 11.4828650 -20.0981786 -0.4001383 0.7165154 -0.5713974
-18.0195563 11.2620478 -21.6742495 -0.3645125 0.6768200 -0.6395665
-15.4434888 10.9564582 -23.2646045 -0.2859714 0.6462166 -0.7075482
-11.4450633 10.4462112 -24.8590048 -0.2277039 0.6303296 -0.7421830
-7.1021588 9.8906567 -26.5579772 -0.2464140 0.5605948 -0.7905780
-1.5192293 9.1609301 -28.3638752 -0.2379153 0.5775087 -0.7809481
2.7057080 8.6333557 -30.3302725 -0.2461565 0.7015168 -0.6687908
7.1247026 8.0828242 -32.4180114 -0.1110574 0.7108005 -0.6945710
-20.6697762 7.8473755 23.6099252 -0.7146399 0.5887089 0.3777720
-21.3920286 8.0734105 21.1671741 -0.8028481 0.5417249 0.2489358
-21.7876248 8.2379461 18.9258377 -0.8458294 0.4863948 0.2190723
-22.2312147 8.4096797 16.6956695 -0.8793138 0.3924649 0.2697749
-22.8463674 8.6107590 14.4252428 -0.8992913 0.3271925 0.2902073
-23.5600178 8.8276604 12.1544557 -0.8973692 0.2675020 0.3509577
-24.5634846 9.0942778 9.8124873 -0.8576233 0.3002035 0.4175644
-25.6005389 9.3644081 7.5121488 -0.8466595 0.3716044 0.3808910
-26.3164853 9.5753332 5.3820844 -0.8614194 0.4349228 0.2622951
-26.7140742 9.7283777 3.4027059 -0.8533829 0.4927074 0.1702266
-26.9330697 9.8488195 1.5108035 -0.8192690 0.5543445 0.1466306
-27.1312585 9.9645993 -0.3517520 -0.7755057 0.6132289 0.1501372
-27.4664513 10.1031367 -2.2314456 -0.7109919 0.6685337 0.2180669
-27.9340182 10.2633107 -4.1198907 -0.6986287 0.6735788 0.2412665
-28.4377531 10.4282945 -5.9862886 -0.6679946 0.7006179 0.2508340
-28.8882311 10.5827334 -7.8083553 -0.6756239 0.7183761 0.1657352
-29.1169263 10.6981006 -9.5531833 -0.7037292 0.7091023 0.0440362
-28.9924171 10.7526810 -11.2068920 -0.6743181 0.7270836 -0.1290141
-28.5537222 10.7538912 -12.7951064 -0.6449334 0.7261185 -0.2383544
-27.8051380 10.7031878 -14.3348372 -0.5557433 0.7407947 -0.3773229
-26.7379460 10.5998284 -15.8406531 -0.5113263 0.7327240 -0.4490667
-25.4436075 10.4597414 -17.3403146 -0.4506879 0.7385898 -0.5013637
-23.8863444 10.2775093 -18.8410007 -0.4087587 0.7307307 -0.5467623
-22.1396149 10.0658102 -20.3624593 -0.3965902 0.7087013 -0.5834883
-20.1626717 9.8183645 -21.9104384 -0.3748109 0.6682880 -0.6425791
-17.8757039 9.5226294 -23.4908003 -0.3442170 0.6501406 -0.6773713
-14.9398433 9.1241846 -25.1026072 -0.2822982 0.6444113 -0.7106629
-11.2187548 8.6023562 -26.7725568 -0.2089593 0.7016535 -0.6811889
-6.7375098 7.9628418 -28.5377876 -0.1168649 0.7226551 -0.6812578
-1.5374158 7.2138455 -30.4332408 -0.1952273 0.7298684 -0.6551172
2.3242956 6.6852707 -32.4540559 -0.2387919 0.7013314 -0.6716493
8.5257703 5.7895886 -34.6601368 -0.0398001 0.5140056 -0.8568630
-20.5294513 5.7623829 25.8888029 -0.7792948 0.3373356 0.5281139
-21.7529068 6.1137626 23.1438226 -0.9338722 0.2249935 0.2779579
-22.2499408 6.3155707 20.8257395 -0.9553347 0.2237602 0.1930467
-22.5618454 6.4784402 18.6331569 -0.9719052 0.1593945 0.1731867
-22.9277547 6.6506187 16.4457186 -0.9651852 0.1716702 0.1973497
-23.3470717 6.8318509 14.2664687 -0.9398000 0.1934795 0.2816763
-24.1133686 7.0799867 11.9757860 -0.8910734 0.2311221 0.3906030
-25.3173694 7.4118987 9.5571726 -0.8342637 0.2921133 0.4676258
-26.5264025 7.7417449 7.1987836 -0.8382139 0.3780358 0.3930475
-27.1825525 7.9609219 5.1007313 -0.8728277 0.4022942 0.2762810
-27.6341607 8.1384945 3.1124688 -0.8692419 0.4530218 0.1979640
-27.9638966 8.2909913 1.1954638 -0.8470691 0.4928847 0.1988434
-28.3118702 8.4456588 -0.6999866 -0.8163341 0.5251529 0.2404436
-28.7175695 8.6100095 -2.5844960 -0.8034042 0.5430399 0.2442320
-29.3478101 8.8156314 -4.4998898 -0.7669232 0.5639816 0.3061921
-29.9633512 9.0166595 -6.3747247 -0.7681296 0.5858328 0.2584122
-30.2782589 9.1592768 -8.1439763 -0.7722383 0.6138888 0.1636719
-30.4490244 9.2736387 -9.8575164 -0.7755383 0.6307290 0.0268573
-30.2728330 9.3222666 -11.4833660 -0.7638735 0.6352360 -0.1138969
-29.9158656 9.3369447 -13.0696285 -0.7157542 0.6498774 -0.2556469
-29.2642716 9.2970742 -14.6073131 -0.6524264 0.6654513 -0.3626491
-28.3452899 9.2084146 -16.1154984 -0.5784066 0.6891931 -0.4364158
-27.2153082 9.0819662 -17.6148988 -0.5142731 0.6946890 -0.5029217
-25.8370062 8.9114309 -19.1118182 -0.4516572 0.6980025 -0.5556962
-24.1750113 8.6909790 -20.6150742 -0.4146103 0.6789097 -0.6059537
-22.1890181 8.4139944 -22.1352562 -0.3838665 0.6436381 -0.6621001
-19.9654787 8.0968038 -23.6931527 -0.3687698 0.6161404 -0.6959740
-17.3994780 7.7211420 -25.2950729 -0.3362127 0.5947318 -0.7302432
-14.4609047 7.2824183 -26.9560996 -0.3245622 0.6014393 -0.7300207
-11.2156850 6.7931878 -28.6942194 -0.2549102 0.6638530 -0.7030789
-6.9048492 6.1198727 -30.5256719 -0.1303994 0.6856613 -0.7161456
-1.6444631 5.2853461 -32.4977914 -0.2086644 0.6362507 -0.7427275
3.7816619 4.4291689 -34.6266107 -0.2338650 0.5134590 -0.8256313
-20.9177922 3.8700261 25.7813573 -0.9174657 -0.1752292 0.3571435
-21.6457543 4.1434012 23.2906926 -0.9415227 -0.2353801 0.2411040
-22.1862550 4.3729898 20.9405603 -0.9590912 -0.2019168 0.1984281
-22.6394024 4.5813473 18.6714843 -0.9615569 -0.2148876 0.1709728
-23.0090445 4.7696149 16.4760214 -0.9694626 -0.0906982 0.2278512
-23.5991375 5.0040188 14.2160952 -0.9513511 -0.0211091 0.3073848
-24.5172911 5.3071319 11.8592578 -0.9044591 0.0897858 0.4170040
-25.9558162 5.7192988 9.3474397 -0.8307762 0.1908436 0.5228668
-27.1921671 6.0844374 6.9835171 -0.8767966 0.3002272 0.3756214
-28.0365958 6.3628150 4.8233872 -0.8811726 0.3659838 0.2993169
-28.4382881 6.5448811 2.8615082 -0.9120720 0.3603387 0.1956547
-28.7451574 6.7053490 0.9603599 -0.9130355 0.3635125 0.1849998
-29.2080602 6.8971716 -0.9619439 -0.8809909 0.3926757 0.2639335
-29.7176809 7.0970720 -2.8659247 -0.8433628 0.4206394 0.3343677
-30.3206735 7.3146376 -4.7619057 -0.8671198 0.3960285 0.3021004
-30.9116482 7.5278062 -6.6189521 -0.8637199 0.4212086 0.2767152
-31.2973534 7.6968157 -8.3933932 -0.8892844 0.4378388 0.1321760
-31.3974988 7.8058010 -10.0794038 -0.8739108 0.4847112 0.0365372
-31.3247493 7.8785834 -11.7144956 -0.8352660 0.5353186 -0.1255580
-30.9660579 7.8926781 -13.2877069 -0.7950283 0.5641361 -0.2228910
-30.4407000 7.8730135 -14.8332777 -0.7626583 0.5657917 -0.3134198
-29.6883690 7.8078993 -16.3510948 -0.6509336 0.6388046 -0.4101392
-28.7007085 7.6962731 -17.8516313 -0.5927435 0.6387707 -0.4905376
-27.4659464 7.5364109 -19.3453646 -0.5285710 0.6378625 -0.5601287
-25.9438018 7.3209551 -20.8407053 -0.4587735 0.6250798 -0.6315079
-24.0714173 7.0382143 -22.3468130 -0.4067254 0.6043885 -0.6850467
-21.8031050 6.6800874 -23.8778157 -0.3787982 0.5493168 -0.7448241
-19.2811019 6.2754684 -25.4588685 -0.3753626 0.5233427 -0.7649937
-16.5486223 5.8334131 -27.1028269 -0.3626938 0.5227052 -0.7715131
-13.7132005 5.3753214 -28.8203383 -0.3697798 0.5254490 -0.7662677
-10.3488584 4.8189737 -30.6172647 -0.2964715 0.4963315 -0.8159409
-5.1965249 3.9230649 -32.5431673 -0.2193210 0.4351319 -0.8732460
1.5951198 2.7205500 -34.6761335 -0.2333243 0.1708219 -0.9572772
-20.2582727 1.7250463 26.2368995 -0.9201322 -0.3702136 0.1276664
-20.4996009 1.9052065 23.9755056 -0.8975619 -0.4305425 0.0949518
-20.7703185 2.0907719 21.7277992 -0.8493861 -0.5104592 0.1340697
-21.4857386 2.3804337 19.2971905 -0.8260055 -0.5234015 0.2092030
-22.3900168 2.7121439 16.8266639 -0.8919682 -0.3758812 0.2512091
-23.2287337 3.0253673 14.4380024 -0.8991360 -0.1878994 0.3952825
-24.4463984 3.4245763 11.9410163 -0.8790089 -0.0662623 0.4721786
-26.2883148 3.9657896 9.2593322 -0.8207534 0.0802483 0.5656183
-27.6663084 4.3942767 6.8406734 -0.8762979 0.1455877 0.4592453
-28.6028655 4.7168119 4.6493794 -0.9240288 0.2282119 0.3067411
-29.0568644 4.9254112 2.6736585 -0.9549514 0.2275586 0.1904860
-29.3761678 5.1013232 0.7735773 -0.9560601 0.2022724 0.2122143
-29.7607550 5.2905845 -1.1195693 -0.9535755 0.1959764 0.2286635
-30.3626991 5.5275131 -3.0459612 -0.9327013 0.2022014 0.2986351
-30.9249847 5.7534012 -4.9253211 -0.9249665 0.2132093 0.3146091
-31.5353428 5.9881213 -6.7821283 -0.9291990 0.2606320 0.2620308
-31.8939218 6.1644446 -8.5448201 -0.9419528 0.2838457 0.1793222
-32.0774731 6.3002632 -10.2436712 -0.9333932 0.3525165 0.0671502
-32.0532483 6.3888631 -11.8818503 -0.9216846 0.3830342 -0.0615002
-31.7800506 6.4217872 -13.4631563 -0.8661567 0.4473862 -0.2227512
-31.3689843 6.4242036 -15.0186115 -0.8337896 0.4654039 -0.2969748
-30.6939198 6.3689267 -16.5372312 -0.7819223 0.4815249 -0.3958931
-29.8345091 6.2740788 -18.0426363 -0.6873978 0.5136985 -0.5134181
-28.7254040 6.1260189 -19.5368991 -0.6472747 0.5098225 -0.5666714
-27.3428724 5.9203333 -21.0302141 -0.5489782 0.5335807 -0.6433619
-25.5721559 5.6331236 -22.5272109 -0.4607297 0.5079684 -0.7278023
-23.3686614 5.2559281 -24.0441048 -0.4134532 0.4514618 -0.7907204
-20.7078839 4.7847149 -25.6006164 -0.4188680 0.4256556 -0.8021016
-17.9049486 4.2875631 -27.2269478 -0.4456863 0.3293720 -0.8323928
-15.0891022 3.7921126 -28.9305502 -0.4248159 0.3115010 -0.8499992
-11.8973485 3.2220223 -30.7129974 -0.3894164 0.2772204 -0.8783528
-6.8793501 2.2746347 -32.6218360 -0.2001216 0.0849162 -0.9760843
1.8183870 0.5684811 -34.8108374 -0.2820025 -0.0855846 -0.9555887
-18.8311027 -0.7943167 29.3010032 -0.9088834 0.1355341 0.3944129
-19.3454900 -0.5258996 26.8308017 -0.9514248 -0.3074912 -0.0154913
-19.1461145 -0.4449707 24.7704190 -0.8973798 -0.4218613 -0.1293931
-18.7700526 -0.4102832 22.8087115 -0.8591054 -0.5048706 -0.0839265
-18.8870822 -0.2492111 20.6150963 -0.8047480 -0.5846656 0.1026980
-20.1642258 0.2068855 17.9137959 -0.7428552 -0.6005387 0.2958369
-22.2352248 0.8606669 14.9335803 -0.8106287 -0.3960837 0.4312758
-23.9775494 1.4251972 12.1896599 -0.8299133 -0.1775599 0.5288822
-26.2274735 2.1124078 9.3281138 -0.7922505 -0.0220946 0.6097959
-27.8642172 2.6395346 6.8025837 -0.9024100 0.0325120 0.4296501
-28.8827548 3.0075550 4.5784702 -0.9518786 0.0694426 0.2985043
-29.2831559 3.2186977 2.6196662 -0.9782542 0.0721310 0.1944627
-29.5862187 3.4039148 0.7225802 -0.9790776 0.0753232 0.1890332
-29.9802951 3.6099213 -1.1758969 -0.9606554 0.0595143 0.2712917
-30.5260058 3.8512805 -3.0883773 -0.9539871 0.0612560 0.2935240
-31.2097611 4.1241903 -5.0032664 -0.9465405 0.0895629 0.3099024
-31.7994685 4.3718725 -6.8556143 -0.9498930 0.1285007 0.2849399
-32.2731054 4.5893457 -8.6458865 -0.9654305 0.1687791 0.1986395
-32.5319485 4.7532679 -10.3596588 -0.9765418 0.1932932 0.0948889
-32.5759950 4.8643607 -12.0087143 -0.9674214 0.2498987 -0.0405764
