0.3829999 -30.1332472 6.8267936
-1.0058034 -28.9948191 5.6769370
-2.4223794 -27.7750991 4.4681805
-3.9157680 -26.7695302 3.3658362
-5.4793384 -26.0161822 2.3954150
-7.1010954 -25.5305002 1.5702914
-8.7662146 -25.3102538 0.8939158
-10.4490080 -25.2121880 0.2867523
-12.1443717 -25.2624157 -0.2335201
-13.8366491 -25.2799577 -0.7728418
-15.5207912 -24.9748648 -1.5074537
-17.2113849 -23.7822510 -2.7886515
-18.9716896 -20.5500898 -5.3437594
-20.8223676 -18.2012162 -7.3863520
-22.7194006 -16.6500552 -8.9546205
-24.6913272 -14.8277136 -10.7136014
-26.8287747 -11.8492509 -13.2356590
-29.1293257 -8.3460207 -16.1326761
17.5873182 -24.7221322 6.9109205
15.2392526 -26.4869604 7.2716304
13.0798339 -27.8880483 7.4619946
10.9548461 -29.3413370 7.6968001
8.9438662 -30.5948005 7.8413961
7.0698893 -31.5296130 7.8275756
5.3412785 -32.0490426 7.5964468
3.7306722 -32.1711735 7.1506328
2.2257865 -31.8545450 6.4597328
0.8050768 -31.0869259 5.5089527
-0.5714246 -29.9462791 4.3349551
-1.9588612 -28.6293210 3.0451061
-3.4266547 -27.5149656 1.8581753
-4.9743866 -26.6802665 0.8233761
-6.5808938 -26.0774762 -0.0828232
-8.2340255 -25.7125758 -0.8526627
-9.9110277 -25.4708367 -1.5518184
-11.6036647 -25.3301462 -2.1916969
-13.3011125 -25.1797104 -2.8393463
-14.9942399 -24.6875989 -3.7032118
-16.6886547 -22.6274794 -5.5661936
-18.4728830 -18.7134504 -8.6391679
-20.3531114 -16.6427703 -10.5692833
-22.2899512 -15.0131489 -12.2368831
-24.2975345 -13.2115037 -14.0370470
-26.4198324 -10.8122010 -16.2551649
23.4468046 -20.9492214 4.0971931
20.7671091 -23.1273831 4.6651410
18.2114126 -25.1927552 5.1988801
15.6668918 -27.4350922 5.8531821
13.3559416 -29.2458647 6.2982710
11.2259263 -30.7118294 6.5743572
9.2017749 -32.0121132 6.7753904
7.3762209 -32.7998535 6.7023325
5.6732195 -33.2479591 6.4447079
4.0772166 -33.3436211 5.9889957
2.5854635 -33.0163148 5.2877033
1.1747048 -32.2650455 4.3326123
-0.1958658 -31.1756069 3.1671428
-1.5590182 -29.8245476 1.8312197
-2.9931108 -28.6002870 0.5560134
-4.5096818 -27.6301781 -0.5780792
-6.0916138 -26.8905663 -1.5811226
-7.7252965 -26.3739493 -2.4536484
-9.3901931 -25.9899978 -3.2486646
-11.0750128 -25.6840363 -3.9986266
-12.7673396 -25.3043274 -4.7997580
-14.4538913 -24.3511998 -5.9778975
-16.1193314 -19.9241137 -9.4445869
-17.9474392 -16.1078810 -12.5605449
-19.8778613 -14.1759260 -14.4647349
-21.8592870 -12.7700856 -16.0378785
-23.9053552 -11.1487993 -17.7743954
23.8409433 -22.0815199 2.6455011
21.3433737 -23.7861954 3.0010217
18.8890382 -25.5420665 3.4056694
13.7727838 -30.1822343 4.9204197
11.4961907 -32.0544384 5.4625524
9.5080567 -33.2441279 5.6309726
7.6941540 -34.0032474 5.5611146
6.0135812 -34.3911589 5.2803403
4.4299977 -34.4667176 4.8171474
2.9400190 -34.1725810 4.1311565
1.5124343 -33.5550420 3.2439285
0.1472007 -32.5274819 2.0961168
-1.2015820 -31.2107426 0.7555706
-2.6056233 -29.9290937 -0.5789080
-4.0810745 -28.8012682 -1.8312408
-5.6276259 -27.8892559 -2.9588647
-7.2423718 -27.2726987 -3.9062812
-8.8876428 -26.7327563 -4.8111438
-10.5590522 -26.2681706 -5.6728878
-12.2343070 -25.5736392 -6.6933919
-13.8796548 -23.4985918 -8.6498060
-15.4440427 -14.1696153 -15.5487394
-17.3789926 -11.7594670 -17.8288661
-19.3910577 -10.1904437 -19.5579096
-21.4904745 -7.7838011 -21.8891163
22.3704885 -23.3851806 0.7239522
20.0240221 -24.7788692 0.9498529
11.8879382 -33.0185430 4.1510623
9.8772760 -34.2596632 4.3779047
8.0637135 -35.0151824 4.3242436
6.3766968 -35.4333132 4.0723118
4.8011240 -35.4995789 3.6069244
3.3122835 -35.2331045 2.9336169
1.8688562 -34.7299156 2.1070951
0.4880693 -33.8482608 1.0323688
-0.8673928 -32.6690630 -0.2452716
-2.2489266 -31.3864485 -1.6047803
-3.6811897 -30.1184703 -2.9704007
-5.1919388 -29.0684875 -4.2068472
-6.7805722 -28.3326885 -5.2456640
-8.4060083 -27.6842160 -6.2344791
-10.0535797 -27.0072156 -7.2507377
-11.6995001 -25.9121931 -8.5631071
-12.7729501 -11.5827804 -19.0810272
-14.6671969 -7.4512408 -22.6290101
-16.7297022 -4.7533349 -25.2143422
12.4559247 -33.4770237 2.5365956
10.3501070 -34.9536607 2.9365834
8.4941557 -35.8208342 2.9700489
6.8047518 -36.2410424 2.7292846
5.2248360 -36.3270882 2.2786116
3.7145851 -36.1585703 1.6635607
2.2576453 -35.7431487 0.8844408
0.8587873 -34.9964633 -0.1191788
-0.5170400 -33.9977210 -1.3005029
-1.8900994 -32.7787722 -2.6427207
-3.2967128 -31.4825692 -4.0526141
-4.7823544 -30.3879041 -5.3401352
-6.3357543 -29.4963998 -6.5004261
-7.9375293 -28.7366048 -7.5796800
-9.5544883 -27.8241198 -8.7760598
-11.1440878 -26.0404947 -10.6035997
-11.8048661 -5.2117876 -26.1221577
10.9590117 -35.2557671 1.2398430
9.0406067 -36.2669420 1.3845325
7.3072955 -36.8016739 1.2272087
5.6970007 -36.9803658 0.8392161
4.1704783 -36.8728357 0.2608688
2.6951012 -36.5438179 -0.4692312
1.2739039 -35.9250305 -1.4020098
-0.1161802 -35.0467737 -2.5219344
-1.5015958 -33.9689447 -3.7920694
-2.9103246 -32.7867684 -5.1491210
-4.3660291 -31.6147757 -6.5137119
-5.8931218 -30.6380412 -7.7530768
-7.4626954 -29.7039313 -8.9738549
-9.0390435 -28.4685678 -10.4258716
-8.8102351 -3.3459002 -29.4515101
9.7828260 -36.1429239 -0.5998320
7.9297732 -36.9908576 -0.5360360
6.2591509 -37.3336477 -0.8100609
4.6937268 -37.3443103 -1.3109985
3.1983705 -37.0844267 -2.0018595
1.7536251 -36.5698156 -2.8765369
0.3445124 -35.8014316 -3.9391532
-1.0556301 -34.8390459 -5.1513873
-2.4697545 -33.7474618 -6.4697545
-3.9149755 -32.5863431 -7.8529117
-5.4166271 -31.5057860 -9.1910864
-6.9544945 -30.3789357 -10.5774427
-8.4523302 -28.4411048 -12.5884187
8.8506959 -36.2877556 -2.9553448
7.0159936 -37.0682374 -2.9180476
5.3553758 -37.3449256 -3.2335468
3.8106557 -37.2258614 -3.8329692
2.3309424 -36.8236558 -4.6413534
0.8963783 -36.1528315 -5.6533582
-0.5178356 -35.2571909 -6.8414540
-1.9363882 -34.1981265 -8.1637799
-3.3897500 -33.0998044 -9.5293383
-4.8665555 -31.8704169 -11.0090451
-6.3406128 -30.2481652 -12.8071469
4.6850537 -36.4453536 -6.3841881
3.1316840 -36.2287792 -7.0715811
1.6331251 -35.7418567 -7.9681368
0.1877280 -34.9180257 -9.1302799
-1.2383739 -33.8288398 -10.5089516
-2.6667875 -32.5081054 -12.0827979
-4.0564236 -30.6046767 -14.1332900
0.3109929 26.0245657 -24.9297095
-1.7284951 25.9947380 -24.3659805
-11.6299818 36.9091988 -4.0893636
-13.0454987 37.4153236 -2.8625681
-14.8028798 37.3382007 -2.4583680
5.0457329 25.4761459 -23.3837081
3.2252846 26.1193377 -21.8521586
1.3840380 26.5845287 -20.5873766
-0.4664539 26.9478185 -19.4761090
-2.3982993 27.0374334 -18.7602094
-4.4487778 26.8161335 -18.4856287
-7.8069096 35.7030160 -3.8505193
-9.0762890 36.5527272 -2.1672452
-10.4512960 37.1315418 -0.8678094
-11.9708846 37.4110339 0.0158561
-13.6270172 37.4439705 0.5622719
-15.4182441 37.2639382 0.8225151
-17.5253331 36.6276736 0.4776268
7.5914515 24.4984810 -21.9035980
5.7475728 25.1044500 -20.4529404
3.9324831 25.6957019 -19.0327283
2.1353431 26.2405675 -17.6866932
0.3814984 26.8268156 -16.2922322
-1.2568133 27.6468135 -14.5856245
-5.7472309 34.4061892 -3.2155472
-6.9765738 35.4175150 -1.3475342
-8.3411263 36.0633814 0.0188548
-9.7986367 36.4750254 1.0656401
-11.3203255 36.7355860 1.9075292
-12.9615364 36.7730068 2.4542032
-14.7096394 36.6360878 2.7742677
-16.5998966 36.2922793 2.8299944
-18.8355615 35.4670415 2.2749846
10.0942695 23.4467504 -20.5556402
8.2334199 24.0395976 -19.1484310
6.3835869 24.5468754 -17.8672898
4.5767856 25.1139604 -16.5132103
2.8340724 25.7965725 -15.0125452
1.2389110 26.8273787 -13.0564357
-1.3258310 30.1294563 -7.5515513
-2.5499049 31.5982817 -5.0779814
-3.7765328 32.8783239 -2.8745088
-5.0721460 33.8554306 -1.0850451
-6.4010252 34.6545368 0.4589785
-7.8280803 35.1747230 1.6321812
-9.3075545 35.5438523 2.6043308
-10.8540221 35.7571694 3.3729640
-12.4887494 35.7992864 3.9223639
-14.2063847 35.7011725 4.2953631
-16.0493967 35.4133927 4.4337370
-18.1085201 34.8214114 4.2002930
-20.7457024 33.4339258 2.9983869
12.6384985 22.8119770 -18.6710578
10.7562666 23.2984990 -17.4330575
8.8779663 23.6794278 -16.3427934
7.0280203 24.0963954 -15.2109852
5.2466570 24.6954733 -13.8469162
3.5634067 25.5312263 -12.1836805
2.0959212 26.9259750 -9.8090785
0.8234837 28.6877667 -6.9833425
-0.4763080 30.1193112 -4.6078033
-1.8661650 31.1245007 -2.7971080
-3.1950897 32.1507039 -0.9754628
-4.5563344 32.9810059 0.5839390
-5.9466497 33.6552500 1.9354274
-7.4110714 34.1061148 2.9990262
-8.9406087 34.3847125 3.8429897
-10.4984474 34.5838309 4.5850990
-12.1447302 34.6081959 5.1110966
-13.8747205 34.4886669 5.4623985
-15.6823462 34.2530989 5.6758513
-17.6697945 33.7567824 5.5811524
-20.0006360 32.7856766 4.9301199
15.2384931 23.0607551 -15.6824858
13.3493681 23.3344800 -14.7504165
11.4596258 23.5206645 -13.9357138
9.5742482 23.6790666 -13.1596220
7.7461805 24.0592313 -12.1028682
5.9880510 24.6437273 -10.7926328
4.3982897 25.7376627 -8.8486233
2.9701544 27.1875083 -6.4749870
1.6494093 28.7408776 -3.9944270
0.2251918 29.7688442 -2.1884693
-1.2406414 30.5445292 -0.7088449
-2.6720206 31.3070413 0.7427950
-4.1047103 31.9744246 2.0670857
-5.5686603 32.4961889 3.2051772
-7.0719706 32.8786574 4.1679810
-8.6412654 33.0898297 4.9204822
-10.2395094 33.2250006 5.5795777
-11.9013857 33.2317304 6.0852142
-13.6332272 33.1160014 6.4473175
-15.4386609 32.8872782 6.6796805
-17.3940935 32.4374316 6.6599370
-19.6111187 31.6212138 6.2263912
17.8284927 24.4045512 -11.4076661
15.9577591 24.3272675 -10.9493277
14.0784264 24.2130495 -10.5364070
12.1939655 24.1005921 -10.1196671
10.3314084 24.1342857 -9.5195863
8.5418001 24.5038347 -8.5049421
6.8574190 25.2392629 -7.0463672
4.0199284 28.1776623 -2.3812275
2.5107732 29.0011656 -0.8605593
0.9025002 29.4066669 0.1466343
-0.6430786 29.9288837 1.2867423
-2.1585142 30.4608963 2.4305741
-3.6665395 30.9456431 3.5107838
-5.2187688 31.2729030 4.3995851
-6.8018825 31.4971536 5.1637787
-8.4120964 31.6420569 5.8329765
-10.0470403 31.7238808 6.4276062
-11.7488005 31.6729064 6.8696576
-13.4952964 31.5462226 7.2267071
-15.2939970 31.3407481 7.4969820
-17.2249735 30.9350246 7.5465963
-19.4053836 30.1683035 7.2016937
23.8397572 24.4631592 -9.9944161
22.0332957 25.2467947 -8.4699952
20.2528773 25.7964082 -7.2475404
18.4859704 26.1718467 -6.2480765
16.7106594 26.2859150 -5.5746744
14.8872664 25.9798900 -5.4150210
13.0367437 25.5930807 -5.3488231
11.2281026 25.5474719 -4.8662022
6.9048276 29.8439474 1.8256183
5.1566607 29.6511743 2.1051835
3.3752357 29.3783423 2.2940349
1.6527448 29.3272141 2.7439978
0.0209020 29.5417824 3.5009080
-1.5647491 29.8509274 4.3629212
-3.1994368 29.9983404 5.0362591
-4.8524609 30.0847004 5.6383209
-6.5255805 30.1161197 6.1773156
-8.2167937 30.1054008 6.6687397
-9.9173063 30.0764857 7.1400655
-11.6648397 29.9595921 7.5148304
-13.4362666 29.8089417 7.8542925
-15.2477133 29.6006138 8.1331954
-17.1455420 29.2638062 8.2763738
-19.2961234 28.5451822 8.0150247
26.0727957 23.4358168 -8.8824256
24.2480792 24.3555062 -7.2192007
22.4590568 24.8995403 -6.0235739
20.6997268 25.5074251 -4.7591398
18.9786214 26.2329668 -3.3629947
17.3247372 27.2876791 -1.5865065
14.2772914 30.1309648 2.7814543
12.6872850 30.5497404 3.7653283
11.0698659 30.7208525 4.4561248
9.3811328 30.5250936 4.7219409
7.6649995 30.2540720 4.9043841
5.9121055 29.8930924 4.9883723
4.1477821 29.5519332 5.0998808
2.4333210 29.4210565 5.4522970
0.7638408 29.4410122 5.9747628
-0.9177735 29.4241194 6.4560270
-2.6705777 29.2245511 6.7363289
-4.4473734 28.9893953 6.9805015
-6.2339469 28.7572499 7.2312538
-8.0239644 28.5414320 7.5028946
-9.8251759 28.3234513 7.7752450
-11.6229701 28.1324136 8.0793491
-13.4176027 27.9641653 8.4102306
-15.2117600 27.8108996 8.7591952
-17.1181677 27.4762687 8.9210441
-19.2319872 26.8243736 8.7588673
26.4621634 22.7876336 -6.7921285
24.6490009 23.3335141 -5.6087760
22.8599840 23.7651178 -4.5671323
21.0960418 24.2974287 -3.4144333
19.3898248 25.3158144 -1.7068310
16.3273980 29.1461796 3.7150748
14.8082847 30.1523525 5.3524922
13.2230261 30.4498642 6.1755285
11.5851165 30.3849341 6.5876670
9.9083291 30.1473601 6.8081962
8.1892805 29.7755248 6.8833024
6.4601903 29.4324826 6.9952942
4.7358042 29.1635467 7.1931075
3.0412834 29.0341436 7.5462460
1.3669570 28.9843863 7.9871058
-0.3581557 28.7960634 8.2800194
-2.1648715 28.4133216 8.3684382
-4.0179008 27.9593729 8.3868594
-5.8976681 27.4925396 8.3980906
-7.7809059 27.0670070 8.4589688
-9.6710745 26.6691455 8.5544840
-11.5349624 26.3622272 8.7492025
-13.3365629 26.2033243 9.0995593
-15.1493692 26.0371567 9.4447077
-17.0637607 25.7046318 9.6243509
-19.2172298 24.9922465 9.4282026
28.7248374 20.6983017 -6.9481246
26.8652500 21.5632401 -5.4085707
25.0521138 21.8854646 -4.5009750
23.2541916 22.1962190 -3.6109789
21.4758131 22.6367208 -2.5790381
16.7855347 28.8316267 5.8749300
15.2459248 29.5890560 7.1966344
13.6531533 29.7672763 7.8745166
12.0176491 29.6552317 8.2345510
10.3362600 29.3389210 8.3756239
8.6238467 28.9489116 8.4420099
6.9113320 28.6313514 8.5909400
5.2068762 28.3976181 8.8329395
3.5122002 28.2335457 9.1513613
1.8247401 28.1156365 9.5202079
0.0882820 27.8692473 9.7573350
-1.7297022 27.4297099 9.7987898
-3.6006601 26.9057328 9.7598691
-5.5190284 26.3252696 9.6707512
-7.4545129 25.7672568 9.6123059
-9.3925214 25.2601585 9.6126007
-11.3036510 24.8577302 9.7240922
-13.1481422 24.6243229 10.0082161
-15.0063057 24.3851526 10.2898531
-16.9669309 23.9796730 10.4126270
-19.1541026 23.2119412 10.1903718
-30.5017061 7.1648797 -4.7025414
29.1361274 19.3887896 -5.6303449
27.2790274 20.0554792 -4.3421388
25.4594540 20.2988403 -3.5316374
23.6505843 20.4397734 -2.8372048
21.8535485 20.7460272 -1.9641110
17.1734833 27.9269040 7.3442788
15.6356769 28.7017315 8.6564927
14.0403145 28.8355286 9.2794270
12.3978323 28.6523447 9.5670830
10.7106145 28.2786952 9.6581735
8.9996002 27.8732179 9.7212812
7.2923577 27.5610247 9.8860665
5.5957545 27.3437446 10.1522779
3.9073338 27.1896419 10.4856737
2.2150627 27.0452951 10.8309685
0.4765893 26.7802752 11.0570483
-1.3358785 26.3394073 11.1113921
-3.1922325 25.8350546 11.1088537
-5.0969802 25.2668801 11.0504054
-7.0304775 24.6918715 10.9929943
-8.9999811 24.0947613 10.9219579
-10.9560843 23.5844112 10.9425399
-12.8628903 23.2217713 11.1112099
-14.7995558 22.8329360 11.2599113
-16.8192523 22.3221885 11.2990088
-19.0273411 21.5162662 11.0689641
-22.1665465 19.1752362 9.4246996
29.5809842 17.5737775 -4.8580772
27.7004610 18.4236207 -3.3916382
25.8707233 18.6825640 -2.5704004
24.0526061 18.7808497 -1.9239322
22.2420154 18.9906342 -1.1608162
17.5441138 26.8681064 8.6384886
16.0020377 27.6400558 9.9210375
14.3995673 27.7215134 10.4853149
12.7492642 27.4817720 10.7213518
11.0535135 27.0525948 10.7689351
9.3351615 26.6069870 10.8057322
7.6338955 26.3230274 11.0098028
5.9415978 26.1248295 11.3026485
4.2617382 26.0037975 11.6740696
2.5798871 25.8937016 12.0577452
0.8550728 25.6640502 12.3267398
-0.9425141 25.2514739 12.4223643
-2.7781376 24.7851784 12.4720407
-4.6619737 24.2483067 12.4608264
-6.5866558 23.6704842 12.4181157
-8.5484594 23.0667247 12.3588081
-10.5558895 22.4222057 12.2696325
-12.5400078 21.8869064 12.2899715
-14.5586732 21.3304511 12.2980447
-16.6328700 20.7154700 12.2602567
-18.8620667 19.8670045 12.0196854
-21.7136591 17.9907001 10.8685684
30.0281857 15.7883091 -4.0176666
28.1275639 16.7415141 -2.4682550
26.2872618 16.9933481 -1.6603786
24.4587159 17.1507400 -0.9534349
17.8844725 25.4701436 9.5872125
16.3495425 26.4118305 11.0158326
14.7404128 26.4670230 11.5519964
13.0811251 26.1783167 11.7483141
11.3752820 25.6969630 11.7597516
9.6496517 25.2229418 11.7846465
7.9444249 24.9361893 11.9966612
6.2587424 24.7815747 12.3391757
4.5954155 24.7363593 12.7878943
2.9411447 24.7288297 13.2727944
1.2447782 24.5857319 13.6303722
-0.5314648 24.2205905 13.7826665
-2.3575509 23.7600449 13.8513809
-4.2392023 23.2058244 13.8400037
-6.1545137 22.6285236 13.8148401
-8.1220315 21.9877590 13.7397517
-10.1672657 21.2355551 13.5728420
-12.2191877 20.5403931 13.4667713
-14.3150678 19.8180767 13.3457782
-16.4332891 19.1145117 13.2507835
-18.6369097 18.3089185 13.0759645
-21.3396975 16.6677297 12.1877613
28.5584940 15.0543467 -1.5224773
26.7048260 15.4037136 -0.6219352
24.8684736 15.5265903 0.0473999
23.0391640 15.7440868 0.8090752
16.6865910 25.0667346 12.0048970
15.0656047 25.0708554 12.4915898
13.3922236 24.7144236 12.6340259
11.6827127 24.2351147 12.6645788
9.9562709 23.7762810 12.7206077
8.2486970 23.5001193 12.9533380
6.5746407 23.4177657 13.3695231
4.9286712 23.4582007 13.8998976
3.3138509 23.6033602 14.5255206
1.6581146 23.5902111 15.0053223
-0.0754177 23.3366374 15.2683250
-1.8914481 22.8749782 15.3482050
-3.7915421 22.2383750 15.2785058
-5.7326580 21.5674345 15.1867484
-7.7383910 20.8100950 15.0279961
-9.8135165 19.9684495 14.8057596
-11.9353273 19.1047456 14.5754059
-14.0707639 18.2915118 14.3994810
-16.2091356 17.5435432 14.2895691
-18.3847181 16.7865943 14.1817721
-21.0124559 15.2554324 13.4358699
28.9898285 13.4220272 -0.4962311
27.1241250 13.8486441 0.4708980
25.2797447 14.0634182 1.2271510
23.4451774 14.3043931 2.0057799
17.0172783 23.6248719 12.9174933
15.3843794 23.5880410 13.3678887
13.6965730 23.1672492 13.4639175
11.9867922 22.7217149 13.5425975
10.2626041 22.3016208 13.6501271
8.5604034 22.0769504 13.9397913
6.8986051 22.0730429 14.4305743
5.2679671 22.1947131 15.0333269
3.6888811 22.4874283 15.7858783
2.0990341 22.6988308 16.4631262
0.4411002 22.6623755 16.9213348
-1.3507207 22.2292576 17.0364178
-3.2848740 21.4480478 16.8577831
-5.2806974 20.5922973 16.6255337
-7.3318540 19.6899839 16.3647961
-9.4653087 18.6841548 16.0286080
-11.6547503 17.6494654 15.6812177
-13.7981720 16.8098660 15.5084877
-15.9363558 16.0552763 15.4162741
-18.1081275 15.2982380 15.3316923
-20.6904461 13.8258993 14.6786808
29.4132514 11.9709578 0.7245755
27.5380490 12.4998117 1.7763238
25.6901325 12.7630128 2.5718727
23.8540732 13.1056873 3.4381108
17.3473239 22.1313349 13.8025431
15.7029356 22.0606121 14.2257047
14.0132672 21.6695433 14.3631798
12.3020625 21.2454751 14.4762451
10.5842585 20.8856477 14.6512655
8.8829657 20.6866904 14.9716035
7.2288596 20.7421393 15.5154826
5.6164847 20.9611821 16.1997202
4.0698282 21.3957393 17.0656661
2.5525956 21.8681693 17.9582263
1.0025285 22.1651417 18.6967023
-0.6949260 21.9681869 19.0177685
-2.6398096 21.0792690 18.7662500
-4.7195225 19.9255812 18.3075860
-6.8674484 18.7221865 17.8227962
-9.0744000 17.4992375 17.3373056
-11.3053257 16.3409435 16.9193260
-13.4853660 15.4036835 16.6926221
-15.6210290 14.6438869 16.6184416
-17.7854300 13.8908728 16.5591445
-20.3283802 12.4659619 15.9850101
29.8329720 10.5997214 2.0293981
27.9483501 11.2525013 3.1794467
26.0985359 11.5709965 4.0172339
24.2623557 12.0025192 4.9530472
19.2831463 19.9524151 13.6138275
17.6872920 20.7029353 14.7662703
16.0341132 20.6047854 15.1692844
14.3432949 20.2389331 15.3417170
12.6341307 19.8513927 15.5000180
10.9211806 19.5369199 15.7254361
9.2242164 19.3757103 16.0845197
7.5703417 19.4507834 16.6441872
5.9692989 19.7398528 17.3814134
4.4398672 20.2639231 18.3095836
2.9660512 20.9102146 19.3315978
1.5259087 21.5779515 20.3629658
-0.0211919 21.8165393 21.0385570
-1.8494682 21.1880354 21.0146558
-3.9981606 19.7354671 20.3417925
-6.2618922 18.1393027 19.5734532
-8.5958499 16.5344662 18.8181670
-10.9175720 15.1185505 18.2298659
-13.1179046 14.1120747 17.9752493
-15.2330425 13.3808938 17.9439284
-17.3782681 12.6504222 17.9221963
-19.8132708 11.4052260 17.5217705
30.2541901 9.2165398 3.3289300
28.3545101 10.0908079 4.6572333
26.5034981 10.4888350 5.5551554
24.6685226 11.0372764 6.5796700
19.6327710 18.4514694 14.5518057
18.0309370 19.2767558 15.7487808
16.3769868 19.2267158 16.1968085
14.6878230 18.8977359 16.4117010
12.9826704 18.5503915 16.6153090
11.2680952 18.2325303 16.8474666
9.5707782 18.0808589 17.2196305
7.9161207 18.1698269 17.7892673
6.3135427 18.4746509 18.5319322
4.7869179 19.0382482 19.4780083
3.3422566 19.8225984 20.5925047
1.9549810 20.6935084 21.7655344
0.5055799 21.2428355 22.6761890
-1.1361479 21.1331414 23.0684857
-3.1012194 20.1050277 22.7548381
-5.4311810 18.2004890 21.7842731
-7.9705904 15.9592903 20.5819656
-10.4765563 14.0256823 19.6383408
-12.6995767 12.9353600 19.3470548
-14.7786509 12.2638811 19.3787579
-16.8454856 11.6767555 19.4804898
-19.0831748 10.7912906 19.3724714
30.6772149 7.8184522 4.6213823
28.7702411 8.7215450 5.9506705
26.9094041 9.3232930 7.0118105
25.0733272 9.9348117 8.0738413
19.9900899 17.0244920 15.5707021
18.3732454 17.7861983 16.6943828
16.7221997 17.8424741 17.2326094
15.0358491 17.5650776 17.4995980
13.3336597 17.2523747 17.7414837
11.6194657 16.9432438 17.9899533
9.9239619 16.8121895 18.3832241
8.2659591 16.8997110 18.9499002
6.6483624 17.1571510 19.6480351
5.1161347 17.7310113 20.5879618
3.6581404 18.5022497 21.6724787
2.2969529 19.5087884 22.9268954
0.9154087 20.3078187 24.0121559
-0.6028649 20.5728568 24.6871862
-2.3245361 20.2033464 24.8868976
-4.3855216 18.9283425 24.4229181
-7.0239161 16.2654343 22.9586963
-10.0021532 13.0226059 21.1058333
-12.2643285 11.8014756 20.7471372
-14.2775332 11.2590142 20.8874675
-16.2408293 10.8725316 21.1446625
-18.2925862 10.3342933 21.3000167
-20.8257074 8.8786152 20.8238122
29.1940006 7.2178069 7.1376851
27.3244322 7.8645598 8.2210230
25.4789027 8.6786410 9.4337837
23.6699043 10.0246745 11.0698445
20.3465837 15.5177268 16.5404427
18.7170205 16.2593142 17.6298692
17.0624582 16.3685150 18.2105996
15.3774228 16.1506428 18.5334427
13.6731191 15.8487540 18.7934405
11.9667650 15.6139155 19.1087708
10.2724507 15.5059738 19.5240910
8.6159010 15.6210551 20.1102112
6.9952294 15.8853127 20.8074219
5.4428399 16.4013066 21.6897998
3.9837005 17.2083875 22.7820424
2.6232879 18.2614862 24.0457393
1.2901006 19.2612975 25.2578563
-0.1491718 19.7863075 26.1139831
-1.7438839 19.7735786 26.5774175
-3.5458125 19.1677269 26.6183417
-5.8111524 17.3713882 25.8253362
-9.6434638 11.7327816 22.3620349
-11.8648833 10.5847019 22.0850580
-13.7922111 10.2287013 22.3671576
-15.6485533 10.0619985 22.7826617
-17.5621716 9.7870817 23.1268646
-19.7664009 8.9406823 23.0909973
29.6443853 5.2824297 7.9891918
27.7485023 6.2081279 9.2824701
25.8912525 7.0457727 10.4948216
20.6984563 13.8140247 17.3756684
19.0566132 14.5975821 18.4813759
17.3903150 14.6963298 19.0542082
15.7020226 14.5373017 19.4302545
13.9982907 14.3012915 19.7501677
12.3002375 14.1704542 20.1513486
10.6202477 14.1827783 20.6600817
8.9681325 14.3453422 21.2790357
7.3568511 14.6781159 22.0201126
5.7995189 15.1945993 22.8900648
4.3298945 15.9897070 23.9537278
2.9730757 17.0961306 25.2294322
1.6479539 18.1581553 26.4607023
0.2582498 18.8636488 27.4299438
-1.2665925 19.0583840 28.0364685
-2.9643219 18.7207472 28.2744414
-4.9968656 17.4884413 27.9062009
-9.5281407 9.7971142 23.1856554
-11.5529759 9.1489873 23.2758925
-13.3655770 9.0682160 23.7505871
-15.1399663 9.0813049 24.2879632
-16.9716909 8.9677546 24.7424839
-19.0225699 8.4051019 24.9078741
30.1153952 3.0882375 8.6726949
28.1761909 4.5377584 10.3531808
26.3079460 5.3586340 11.5335203
24.4709239 6.6844871 13.0894193
21.0496382 11.9448443 18.1141513
19.3890345 12.7136593 19.1931582
17.7106429 12.8491813 19.7948298
16.0189952 12.7883010 20.2507644
14.3187409 12.6715982 20.6667135
12.6315513 12.6841325 21.1772718
10.9586596 12.7846877 21.7506629
9.3215816 13.0671669 22.4520590
7.7218132 13.4840759 23.2448219
6.1641254 14.0207482 24.1163578
4.7011138 14.8728993 25.2001986
3.3380184 15.9878649 26.4546543
2.0057372 17.0548116 27.6633656
0.6333492 17.8401786 28.6694015
-0.8720744 18.0984510 29.3132559
-2.5275230 17.8718712 29.6321656
-4.4882846 16.7983743 29.3963221
-9.6146569 7.2783521 23.6636048
-11.3824149 7.3396764 24.2352692
-13.0402087 7.6634652 24.9742980
-14.7225229 7.8999448 25.6540717
-16.5080010 7.8850436 26.1729084
-18.4938162 7.4425097 26.4253462
28.5952942 3.1230083 11.6354514
26.7203932 3.9673032 12.8135433
24.8764230 5.1078714 14.2005457
21.4022897 9.9098571 18.7667263
19.7231561 10.7186823 19.8605921
18.0327104 10.9218571 20.5119846
16.3406946 11.0179438 21.0850137
14.6407708 11.0058186 21.5807334
12.9645414 11.1797631 22.2063887
11.2989927 11.3789821 22.8474783
9.6730921 11.7677757 23.6163476
8.0768986 12.2340355 24.4334223
6.5302937 12.8524622 25.3477890
5.0705410 13.7492632 26.4412893
3.6809741 14.7904005 27.6202029
2.3438216 15.8769015 28.8169496
0.9565733 16.6377254 29.7888306
-0.5463208 16.9186761 30.4417984
-2.2040604 16.6843802 30.7614509
-4.2312551 15.3934837 30.4129963
-9.7373899 4.5925191 24.0967616
-11.3130279 5.2349300 25.0374024
-12.8624049 5.8804256 25.9725180
-14.4528165 6.3677918 26.8034131
-16.1937069 6.4679697 27.3939629
-18.1734430 6.0366858 27.6641975
28.9945364 2.1339752 13.2333358
27.1226610 2.9491771 14.3683591
25.2792635 4.0304704 15.6840811
23.4859213 6.1477606 17.7213835
21.7661946 7.9916623 19.5425006
20.0671711 8.7600136 20.5929209
18.3669460 9.0589468 21.3100132
16.6663530 9.2161314 21.9264529
14.9739471 9.3923722 22.5540089
13.3008551 9.6694222 23.2474929
11.6532758 10.0503063 24.0072154
10.0220767 10.4413595 24.7693052
8.4353190 10.9952500 25.6339581
6.8884755 11.6424467 26.5530917
5.4290419 12.5762062 27.6499861
4.0272491 13.6019544 28.7951636
2.6553448 14.5909031 29.9053120
1.2275524 15.2392183 30.7899085
-0.3053326 15.4459689 31.3918093
-2.0423392 14.9758188 31.5731166
-8.0866487 1.6064298 23.8633610
-9.7479304 2.1515835 24.7439207
-11.3068638 2.9162024 25.7501117
-12.7895725 3.8010758 26.8191632
-14.3285609 4.4652392 27.7480263
-16.0317308 4.6859633 28.4103977
-18.0322015 4.2220481 28.6743285
29.3721152 1.5175498 15.0792044
27.5045862 2.4774445 16.2920160
25.6718416 3.5466613 17.5695273
23.8821668 5.2634747 19.2786614
22.1465013 6.5003412 20.6424158
20.4309286 7.0945971 21.5592283
18.7151405 7.3113513 22.2170510
17.0095084 7.5505270 22.8872468
15.3165479 7.8248612 23.5778097
13.6476941 8.2151395 24.3407847
11.9997667 8.6497196 25.1279521
10.3794585 9.1557132 25.9559311
8.7965460 9.7662405 26.8445490
7.2401412 10.3939948 27.7371238
5.7688378 11.3119189 28.8035726
4.3329014 12.2324878 29.8613429
2.8929265 12.9967258 30.8130321
1.4097164 13.4911581 31.5924000
-0.2286075 13.3783502 32.0010827
-6.1729760 -0.8292334 24.0150909
-7.9413256 -0.5000427 24.7656664
-9.6012600 0.1085897 25.6758365
-11.1630007 0.9248094 26.6993255
-12.6876974 1.7571171 27.7228636
-14.2351136 2.4535668 28.6599123
-15.9328607 2.7272508 29.3514494
-18.0444118 2.0296413 29.4992301
29.7338263 1.1025914 17.0317300
27.8715364 2.2483667 18.3429206
26.0524694 3.3753295 19.6288316
24.2755503 4.5435065 20.9295345
22.5347830 5.3005577 21.9472464
20.8086600 5.6856630 22.7142938
19.0835422 5.8271037 23.3196765
17.3677931 6.0211414 23.9571125
15.6724097 6.3547308 24.6809253
14.0025255 6.8040650 25.4738264
12.3544330 7.2909290 26.2851175
10.7386240 7.8718956 27.1491518
9.1497671 8.4836732 28.0255960
7.5963109 9.1625301 28.9359626
6.0802904 9.9001396 29.8741336
4.5687396 10.5339003 30.7422051
3.0317413 10.9638944 31.4828809
1.3206432 10.6621071 31.7905778
-4.0695656 -2.8063315 24.4699968
-5.9357914 -2.7330546 25.0720943
-7.6748513 -2.2663524 25.8970166
-9.3185315 -1.5668645 26.8478087
-10.9101926 -0.7942073 27.8316270
-12.4837976 -0.0507760 28.7907345
-14.0750258 0.5761302 29.6779010
-15.8327871 0.7379274 30.3064476
-18.1390779 -0.3991084 30.2375518
30.0897417 0.6883291 18.9467229
28.2343853 1.9388242 20.2958360
26.4315378 2.9108066 21.4514434
24.6652037 3.7493619 22.5109798
22.9252208 4.2542760 23.3495477
21.1958042 4.5061123 24.0232976
19.4666921 4.5775397 24.5816990
17.7442495 4.7045525 25.1736344
16.0359685 4.9378074 25.8292454
14.3579818 5.3744623 26.6058194
12.7126443 5.9432824 27.4571479
11.0996339 6.5909645 28.3492726
9.5131145 7.2542684 29.2435217
7.9449434 7.8829924 30.1102374
6.3786792 8.4035832 30.9073043
4.7523382 8.5565838 31.4873438
2.7248081 6.9724033 31.0765187
-1.7385228 -4.0242407 25.3746661
-3.7826216 -4.6049774 25.6098270
-5.6236899 -4.4110892 26.2796658
-7.3292081 -3.8004431 27.1755624
-8.9718789 -3.0663823 28.1316679
-10.5812672 -2.3144737 29.0893059
-12.2030874 -1.6734687 29.9797773
-13.8796718 -1.2384630 30.7548817
-15.7015932 -1.2079111 31.3146914
30.4684926 -0.1777509 20.5383500
28.6081813 1.2371983 21.9616126
26.8122083 2.1703477 23.0689726
25.0522571 2.8703590 24.0220209
23.3141826 3.1888486 24.7335349
21.5837932 3.3614009 25.3528612
19.8534118 3.3937919 25.8858344
18.1266780 3.4615537 26.4395174
16.4114747 3.6370708 27.0561679
14.7240064 4.0233119 27.7944187
13.0655080 4.5340497 28.6007808
11.4618539 5.3090426 29.5536855
9.8766629 6.0205420 30.4619991
8.2914186 6.5814800 31.2775704
6.6558918 6.7718470 31.8797475
4.8455267 6.0925570 31.9979805
0.9899836 -3.4763434 27.2458379
-1.4101802 -5.7036435 26.5852324
-3.4561378 -6.2816030 26.8357409
-5.2848077 -6.0145548 27.5424222
-6.9725264 -5.3103062 28.4766658
-8.6241607 -4.5734666 29.4202899
-10.2604900 -3.8711395 30.3381140
-11.9186599 -3.3029265 31.1797880
-13.6663528 -3.0311035 31.8654032
-15.5719998 -3.1897685 32.3326325
30.8739866 -1.4855578 21.8429968
28.9958345 0.1723199 23.3842268
27.1989231 1.1144556 24.4763307
25.4399576 1.7325723 25.3647676
23.7015089 2.0257528 26.0541587
21.9699347 2.1563577 26.6449661
20.2380211 2.1611544 27.1611625
18.5066965 2.1696077 27.6793558
16.7850045 2.2961557 28.2648249
15.0868832 2.6205492 28.9607987
13.4354584 3.2532713 29.8260335
11.8264760 4.0354784 30.7674601
10.2411799 4.7873495 31.6838510
8.6226922 5.1777479 32.3954183
6.9263414 5.0699440 32.8342054
4.9280026 3.4898476 32.4881775
1.3706925 -4.9042564 28.5577152
-1.0777129 -7.3880494 27.8084261
-3.1484575 -8.0524316 28.0276595
-4.9641577 -7.7007465 28.7746915
-6.6646895 -6.9985773 29.6957232
-8.3221766 -6.2392705 30.6379275
-9.9755023 -5.5507676 31.5368513
-11.6973449 -5.1322929 32.2957267
-13.4953572 -4.9650516 32.9279833
-15.5377712 -5.4547268 33.2425698
29.4176232 -1.5760157 24.3989475
27.5969894 -0.3099213 25.6628838
25.8314245 0.3311809 26.5529008
24.0882321 0.6524229 27.2532743
22.3526773 0.7702956 27.8350231
20.6151792 0.7176790 28.3197993
18.8784548 0.7096092 28.8298344
17.1543683 0.8772593 29.4366658
15.4492116 1.1869604 30.1191647
13.8047020 1.9557910 31.0463908
12.1943011 2.7781427 31.9941324
10.5890735 3.4321068 32.8439950
8.9398794 3.6677492 33.4675362
7.1880090 3.2805263 33.7651203
5.0604393 1.0473192 33.1178245
1.7370838 -6.4084243 29.8367143
-0.9059196 -9.7887509 28.6858146
-3.2200118 -11.3708569 28.4663311
-4.8636343 -10.2322630 29.6048611
-6.4809901 -9.1435310 30.7070779
-8.1114870 -8.2262813 31.7150722
-9.8010478 -7.5956395 32.5765814
-11.5515249 -7.2120883 33.3147650
-13.4571486 -7.3040334 33.8268601
-15.9149413 -8.8686539 33.6599648
28.0362345 -2.7985320 26.2600690
26.2361900 -1.6667654 27.4169721
24.4774593 -1.2047254 28.1926123
22.7310966 -1.0050344 28.8200327
20.9854564 -1.0029007 29.3383838
19.2409102 -0.9843712 29.8654450
17.5082188 -0.8030771 30.4786782
15.8045312 -0.3578174 31.2287649
14.1530182 0.4423724 32.1589625
12.5365743 1.3001031 33.1104756
10.9133224 1.8890212 33.9158885
9.2328723 1.9749785 34.4611132
7.4239628 1.2976555 34.6238247
5.1616363 -1.6431520 33.6736763
1.8236886 -9.2755431 30.4571110
-8.2254962 -11.3504227 32.2910822
-9.8475076 -10.3858264 33.3031283
-11.6860985 -10.1811096 33.9606421
24.8799714 -4.4089090 28.4408902
23.1045784 -3.6415485 29.3737297
21.3436122 -3.3061344 30.0732144
19.5871936 -3.1290291 30.6873935
17.8457500 -2.8144282 31.3700574
16.1388905 -2.2067511 32.1979096
14.4750745 -1.3749168 33.1318934
12.8452846 -0.4985958 34.0793920
11.1953785 -0.0051941 34.8297690
9.4834364 -0.0426122 35.3170022
7.5904686 -1.1601404 35.2850221
5.1232758 -5.1924188 33.8772981
18.1462782 -5.5852971 31.9176358
16.4338683 -4.6596237 32.8969966
14.7502049 -3.7668254 33.8510724
13.0984542 -2.8626272 34.8015138
11.4152176 -2.4519915 35.5094758
9.6412101 -2.7715684 35.8717819
7.5978195 -4.6996532 35.4932408
14.9434582 -7.2243464 34.1190938
13.2461296 -6.3491061 35.0509067
11.4850054 -6.2437410 35.6240047
9.5043545 -7.7525208 35.4704041
-16.6392235 36.5965961 2.0394440
-14.3842122 34.4568549 5.3870515
-16.9623316 34.0057081 5.5352866
-18.8504958 33.8090214 4.8897692
-20.1508027 33.8409452 3.5013884
-20.7307576 34.1697979 1.1080173
-12.7912983 32.6150723 6.4818808
-15.7227780 32.0783771 7.0008892
-18.0604358 31.7354402 6.9007988
-19.7965729 31.6004596 6.1029550
-21.1427653 31.6064690 4.8154378
-21.9802827 31.8075450 2.8217751
-21.9533740 32.3549142 -0.4613543
-13.7438353 30.3955192 7.5929865
-16.5516954 29.9324971 7.9978161
-18.7047561 29.6711015 7.6984331
-20.4270196 29.5466510 6.9077849
-21.7246937 29.5651824 5.5807913
-22.5959069 29.7360971 3.6579732
-22.8232652 30.1477916 0.7658165
-8.1203384 29.3145778 7.0965554
-11.3349187 28.7989943 7.7471143
-14.4026738 28.3080655 8.3601544
-17.1777683 27.8874126 8.7492372
-19.2625678 27.6639928 8.3878959
-20.8656347 27.5836627 7.4644069
-22.1206622 27.6120203 6.0973027
-22.9476723 27.7819446 4.1288567
-23.1305009 28.1746502 1.1867669
11.6907992 29.6080600 8.1301963
8.6522360 29.2673471 7.9303590
0.9253839 28.1470889 9.3788033
-1.8194558 27.8376883 9.2107913
-4.0918105 27.6375916 8.6397170
-6.5641275 27.3788463 8.3347215
-9.2062763 27.0662343 8.2869694
-12.1075152 26.6729246 8.6202535
-15.2744121 26.1926458 9.3768057
-17.7372572 25.8898536 9.4201231
-19.7274121 25.7092747 8.9610669
-21.2601358 25.6536879 7.9640259
-22.3884698 25.7149703 6.4422804
-23.0927921 25.9061686 4.3135169
-23.1489195 26.3041586 1.1936934
11.8950385 27.1409843 10.8184851
8.9925493 26.8609050 10.4958912
0.9907931 25.7917621 12.1278741
-1.6369333 25.5364916 11.8502905
-4.0089255 25.3305420 11.3919263
-6.1499790 25.1707471 10.7565924
-8.2639666 25.0117136 10.1399734
-10.5941649 24.7953995 9.8084774
-13.3873116 24.4587003 10.0682663
-16.1491757 24.1172960 10.3971008
-18.3754117 23.8981477 10.1863832
-20.1240733 23.7933814 9.4489501
-21.5458690 23.7702157 8.3228808
-22.5712194 23.8521529 6.6733919
-23.1242936 24.0663203 4.3407407
-22.8391309 24.5229216 0.7298434
13.4110734 24.9807202 12.3633063
10.3393881 24.7011404 12.1462038
0.2361057 23.3476262 15.5321234
-1.8643387 23.2188730 14.7938335
-3.9586208 23.0870789 14.0900102
-6.0950577 22.9422500 13.4701157
-8.1802890 22.8030507 12.8446850
-10.0959812 22.6947195 12.0853802
-12.3765334 22.5042561 11.7625408
-14.7378769 22.2892332 11.5965634
-17.0289729 22.0818908 11.4233936
-18.9361208 21.9537786 10.8589423
-20.5526550 21.8879040 9.9769016
-21.8387339 21.8973168 8.6910499
-22.7263702 22.0028757 6.8675756
-23.0976912 22.2393772 4.2874033
-22.2396041 22.7935245 -0.1498852
-2.2149513 20.2696536 25.1259247
-2.7435734 20.4051749 23.1898360
-2.8918641 20.6093486 20.8764335
-3.2864210 20.7777991 18.7143370
-4.3599006 20.8331847 17.1247171
-5.9041179 20.8068258 15.9677214
-7.7443662 20.7261196 15.1141217
-9.6693587 20.6270749 14.3770001
-11.5752956 20.5281325 13.6565307
-13.6317455 20.3970273 13.1385905
-15.6902144 20.2607767 12.6735901
-17.7595783 20.1173424 12.2749833
-19.5658620 20.0214111 11.6152209
-21.0013670 19.9978006 10.5301650
-22.1523281 20.0327484 9.0861529
-22.9109673 20.1527485 7.1012619
-23.1302092 20.3950099 4.3159979
-21.6182097 21.0318618 -1.0613799
-2.0099445 18.1003605 29.5366245
-3.8258837 18.0284914 28.7226750
-4.8112334 18.0732186 27.2582883
-5.2294692 18.2017381 25.2987072
-5.1586704 18.4065208 22.8631565
-5.3757457 18.5747635 20.6057541
-6.1761555 18.6596374 18.8232617
-7.4091975 18.6803224 17.4217939
-9.0076667 18.6441416 16.3745067
-10.7433212 18.5847381 15.4830849
-12.6214756 18.5000209 14.7681174
-14.5541739 18.4032354 14.1497511
-16.6149375 18.2812930 13.7193744
-18.5542379 18.1757602 13.2017104
-20.1969348 18.1182947 12.3732202
-21.5213833 18.1155449 11.1728577
-22.5146578 18.1730919 9.5444877
-23.1802021 18.2939205 7.4484437
-23.2870019 18.5257595 4.5169244
-21.8777456 19.0610533 -0.7089606
-19.4651238 19.8177607 -7.7047020
-3.4165070 16.1567065 30.6275950
-4.8308799 16.1411439 29.5315826
-5.8420757 16.1743352 28.1135336
-6.4802063 16.2548340 26.3660769
-6.8051927 16.3773479 24.3091085
-7.0726369 16.5111979 22.1435039
-7.6361409 16.6109426 20.1901028
-8.7094219 16.6466088 18.6787314
-10.1023146 16.6405127 17.4672232
-11.7424450 16.6003939 16.5122588
-13.5967788 16.5290584 15.8044707
-15.5250009 16.4447166 15.2139875
-17.5603604 16.3418594 14.7886761
-19.3576179 16.2701998 14.1387473
-20.7942962 16.2498492 13.0904834
-21.9522564 16.2712779 11.7039819
-22.8413465 16.3354165 9.9567389
-23.5007125 16.4386190 7.8644504
-23.7191344 16.6175050 5.0998096
-22.8136167 16.9897873 0.6144581
-21.5552529 17.4375861 -4.6229981
-1.9115254 14.4273402 31.6818906
-3.7467759 14.3736650 30.8969711
-5.0756037 14.3688014 29.7406064
-6.1242283 14.3921319 28.3581967
-6.8775303 14.4465319 26.7141297
-7.4704081 14.5194101 24.9002381
-8.0295605 14.5982319 23.0150359
-8.7486807 14.6624217 21.2335617
-9.7873165 14.6937708 19.7217963
-11.1923299 14.6853868 18.5551959
-12.8273069 14.6506702 17.6293456
-14.7065540 14.5865827 16.9834349
-16.6178335 14.5164594 16.4120113
-18.5119475 14.4458498 15.8650212
-20.0881226 14.4113406 14.9904768
-21.2727458 14.4241099 13.6637661
-22.2614727 14.4621562 12.0827631
-23.0978662 14.5213546 10.2781399
-23.7988176 14.6007568 8.2505272
-24.2242997 14.7203943 5.7842007
-23.9433111 14.9418347 2.2166889
-23.0914353 15.2526285 -2.3632586
-22.9229461 15.4793004 -6.1262686
-22.4641408 15.7585402 -10.5274262
-1.8210153 12.6770778 31.6339488
-3.5546214 12.6425168 30.7678120
-4.8619536 12.6405510 29.5881874
-5.9334428 12.6574309 28.2173821
-6.7888129 12.6924358 26.6526989
-7.5866024 12.7333264 25.0132722
-8.4426548 12.7706594 23.3970870
-9.4803717 12.7937263 21.9226956
-10.7769716 12.7951117 20.6798910
-12.3543990 12.7717753 19.7145785
-14.2249832 12.7213294 19.0673900
-16.0891023 12.6697180 18.4517120
-17.8603053 12.6249174 17.7741243
-19.3704748 12.6032183 16.8359374
-20.6226236 12.6056159 15.6125892
-21.6692190 12.6283213 14.1377922
-22.4982164 12.6737155 12.3707901
-23.2983692 12.7238591 10.5270001
-24.0832922 12.7776198 8.6184267
-24.7289720 12.8484047 6.4681327
-24.9762149 12.9654139 3.6805569
-24.7335868 13.1417449 0.0550570
-24.6642074 13.3061684 -3.4723110
-25.0847572 13.4212173 -6.3791306
-25.6199071 13.5279678 -9.2118198
1.0118056 11.0019451 31.7579709
-1.2478565 10.9482948 31.2301359
-2.9085982 10.9273856 30.2927046
-4.2179886 10.9263000 29.0967025
-5.3054626 10.9383055 27.7204604
-6.3134663 10.9554690 26.2657343
-7.3662584 10.9704622 24.8333835
-8.6199983 10.9735088 23.5669856
-10.0984790 10.9625234 22.5060892
-11.8969094 10.9307110 21.7629896
-14.2116541 10.8642315 21.5641104
-16.4494202 10.8005708 21.3538072
-18.1016344 10.7741395 20.5882070
-19.2690066 10.7800275 19.3185200
-20.2650974 10.7981060 17.8478208
-21.1725444 10.8231762 16.2528329
-22.0374762 10.8522924 14.5776888
-22.7711746 10.8922412 12.7042516
-23.5633223 10.9293765 10.8594593
-24.4082384 10.9639661 9.0407001
-25.1947681 11.0045677 7.0983381
-25.7992821 11.0614528 4.8435987
-26.0953057 11.1460025 2.0574527
-26.3135523 11.2407585 -0.9585438
-26.7960046 11.3172045 -3.6791361
-27.5652768 11.3721134 -6.0297891
-28.3323004 11.4298122 -8.4611025
1.5406237 9.2270894 31.4014696
-0.3711361 9.2053368 30.6027945
-1.8715161 9.1981284 29.5198021
-3.1542450 9.1988676 28.2747001
-4.3246909 9.2039134 26.9364136
-5.5755538 9.2060259 25.6578764
-6.9211896 9.2045028 24.4580186
-8.6651971 9.1870681 23.6180040
-10.9205832 9.1483633 23.2789797
-17.4358957 8.9831250 24.7706813
-19.0969799 8.9642783 24.0742496
-20.0861625 8.9739116 22.6949092
-20.7373051 8.9988186 20.9282755
-21.2497469 9.0308772 18.9618115
-21.8366216 9.0607337 17.0269343
-22.5003513 9.0881509 15.1323179
-23.1515452 9.1172359 13.1724027
-23.9118885 9.1421923 11.3003951
-24.7840709 9.1626399 9.5313428
-25.7042186 9.1815235 7.7893440
-26.4936051 9.2079456 5.8221327
-27.0719917 9.2466067 3.4880524
-27.5365403 9.2930880 0.8997578
-28.0864824 9.3369722 -1.6490361
-28.8856896 9.3688789 -3.8791847
-29.7336317 9.3994964 -6.0957125
-30.3872894 9.4430341 -8.7263910
4.3010010 7.4436872 31.6653987
2.2533197 7.4320208 30.9141745
0.6928758 7.4279274 29.8378160
-0.6425222 7.4274286 28.6011006
-1.9061448 7.4281273 27.3078868
-3.1918665 7.4284874 26.0289047
-4.6070512 7.4266464 24.8561695
-6.3582911 7.4188911 23.9802808
-17.1459570 7.2927280 26.8192044
-19.0535720 7.2793617 26.3817567
-20.2457698 7.2791187 25.2564152
-21.1011272 7.2853793 23.7730703
-21.6920083 7.2970678 21.9748714
-22.1332107 7.3121834 19.9611551
-22.4919277 7.3295480 17.7908310
-22.9562362 7.3453897 15.6785520
-23.5242613 7.3596616 13.6310432
-24.2667649 7.3707490 11.7496118
-25.1630963 7.3789165 10.0264025
-26.1463444 7.3854864 8.3871121
-27.0385581 7.3944296 6.5864054
-27.7741296 7.4074289 4.5108308
-28.3686787 7.4243752 2.1567874
-28.9240938 7.4430462 -0.3406473
-29.6484810 7.4583702 -2.6496159
-30.4849785 7.4715664 -4.8432918
-31.2772301 7.4865680 -7.1839053
-31.7363739 7.5112359 -10.2183380
6.3319330 5.6049047 32.4840854
4.2135946 5.6073294 31.7479495
2.7745663 5.6071976 30.5636404
1.6086170 5.6059950 29.1825681
0.4213903 5.6048546 27.8086861
-0.7370080 5.6035744 26.4037629
-2.1490485 5.6033240 25.1950981
-18.3109608 5.6435738 27.9447387
-19.7492838 5.6442644 27.0773188
-20.7596856 5.6429791 25.7870011
-21.4850264 5.6402914 24.1818061
-22.0129894 5.6365493 22.3265795
-22.4512370 5.6322288 20.3195409
-22.7744971 5.6271669 18.1178926
-23.1693161 5.6222887 15.9305469
-23.7316680 5.6181158 13.8825217
-24.4752919 5.6147682 12.0091353
-25.4240894 5.6124323 10.3632246
-26.4536665 5.6104713 8.7978944
-27.4153029 5.6080504 7.1092079
-28.2667832 5.6048886 5.2223237
-28.9046902 5.6003083 2.9580576
-29.4300804 5.5948350 0.4389805
-30.0833913 5.5899313 -1.9618274
-30.8791279 5.5857348 -4.2027678
-31.7047877 5.5815498 -6.4628909
-32.3602843 5.5760078 -9.1108935
-32.4469267 5.5661986 -12.9521135
7.9142579 3.7482749 33.6247236
5.6943639 3.7676016 32.9323582
4.2202281 3.7700181 31.7657203
3.1264951 3.7634672 30.3339729
2.1163753 3.7547140 28.8282581
1.1374315 3.7449437 27.2816758
0.0155522 3.7384460 25.8281279
-1.3970910 3.7391154 24.5984456
-17.0068571 4.0110496 28.9602947
-18.8588315 4.0285687 28.4773677
-20.0449798 4.0281117 27.3756964
-20.8260105 4.0161383 25.8582686
-21.3642636 3.9967262 24.0552343
-21.7762334 3.9729005 22.0667125
-22.1832046 3.9480556 20.0135370
-22.5774165 3.9218967 17.8827231
-23.0511375 3.8972243 15.7810068
-23.6666356 3.8761057 13.7924537
-24.5007297 3.8612454 12.0312401
-25.5207222 3.8519461 10.4795643
-26.5849493 3.8437722 8.9643210
-27.6128042 3.8340157 7.3745254
-28.5123968 3.8193355 5.5664107
-29.1917974 3.7960922 3.3760072
-29.6771194 3.7646646 0.8054582
-30.2583296 3.7354139 -1.7039391
-31.0413724 3.7125849 -3.9597842
-31.8849962 3.6910634 -6.1815874
-32.5992676 3.6632524 -8.7133966
-32.9707000 3.6197994 -11.9971227
7.0562029 1.9257744 34.2017742
5.3427686 1.9406709 33.1900220
4.1335620 1.9342880 31.8477535
3.2144636 1.9150467 30.2924484
2.3911507 1.8909939 28.6457553
1.4801033 1.8701784 27.0392721
0.3969249 1.8566109 25.5450118
-17.6693517 2.4091860 29.5838156
-19.1026963 2.4211233 28.7179625
-20.0083249 2.4064317 27.3441389
-20.4925134 2.3692541 25.5192937
-20.6698424 2.3144713 23.3202061
-20.9065793 2.2609260 21.1128472
-21.3480911 2.2166918 19.0646023
-21.9509387 2.1798588 17.1441436
-22.6443451 2.1468071 15.2815374
-23.4456871 2.1187721 13.5068459
-24.3899595 2.0981353 11.8766477
-25.4491077 2.0836469 10.3701015
-26.5999129 2.0742523 8.9692134
-27.6594962 2.0587100 7.4230819
-28.5798282 2.0335172 5.6453494
-29.2431644 1.9902572 3.4306315
-29.6880946 1.9303098 0.7949819
-30.2201473 1.8736295 -1.7987935
-30.9577697 1.8288284 -4.1386953
-31.7908882 1.7887965 -6.3885143
-32.5649824 1.7424164 -8.8204556
-33.0394091 1.6708786 -11.9140361
8.7588220 0.0610008 35.2624252
6.5366265 0.1132819 34.5607829
5.1483261 0.1154936 33.3429900
4.0583303 0.0990654 31.9219023
3.2114160 0.0666911 30.3157782
2.4414868 0.0283902 28.6286195
1.5443947 -0.0027143 27.0089394
-16.1772196 0.7661285 30.4213686
-18.0680779 0.8159986 29.9621661
-19.1618329 0.8090837 28.7811399
-19.6811244 0.7590687 27.0242100
-19.6458100 0.6651978 24.6537993
-19.3110452 0.5448500 21.8805407
-19.5421476 0.4646861 19.6164312
-20.2493748 0.4197407 17.8167511
-21.1346169 0.3876583 16.1829152
-22.1010353 0.3611195 14.6164626
-23.1439109 0.3400492 13.1198032
-24.2383568 0.3226207 11.6690258
-25.3757746 0.3082972 10.2582796
-26.5676200 0.2983047 8.9084324
-27.6358051 0.2765261 7.3704098
-28.5256937 0.2370583 5.5432636
-29.1508184 0.1704166 3.2635870
-29.5959269 0.0830881 0.6196356
-30.0766548 -0.0046762 -2.0681700
-30.7549722 -0.0762319 -4.5224592
-31.5499122 -0.1389362 -6.8572359
-32.3156790 -0.2078840 -9.3250449
-32.8724911 -0.3034741 -12.2830126
8.3230219 -1.7574301 35.5593299
6.3258593 -1.7061984 34.7210802
5.0044187 -1.7083948 33.4622820
3.9274854 -1.7307958 32.0343023
3.0832742 -1.7733063 30.4281502
2.3122845 -1.8232860 28.7436599
1.3827530 -1.8611015 27.1505938
-16.9226501 -0.7952222 31.1006937
-18.3215359 -0.7751277 30.2055045
-19.0845237 -0.8156281 28.7133082
-19.1522384 -0.9256719 26.5041628
-18.3451559 -1.1268190 23.3226520
-18.0290625 -1.2852644 20.5224101
-18.4694562 -1.3712386 18.4399104
-19.3485502 -1.4141832 16.7931922
-20.4453349 -1.4353757 15.3705220
-21.6294891 -1.4478116 14.0382897
-22.8628802 -1.4552274 12.7586870
-24.0933928 -1.4632473 11.4699489
-25.3167970 -1.4723986 10.1656785
-26.5267306 -1.4835049 8.8356626
-27.6063490 -1.5108172 7.3093982
-28.4729304 -1.5656051 5.4431438
-29.0718975 -1.6565818 3.1171350
-29.4863983 -1.7754672 0.4163984
-29.8798516 -1.9026111 -2.4260859
-30.4521656 -2.0115676 -5.0783363
-31.1935016 -2.1023752 -7.5320474
-31.9412370 -2.1967623 -10.0614820
-32.4355616 -2.3328190 -13.1706647
8.1136558 -3.5836735 35.7154766
6.2657498 -3.5346802 34.7845086
4.9097430 -3.5337983 33.5488023
3.7791453 -3.5558996 32.1586983
2.8836059 -3.6029970 30.5913716
2.0420195 -3.6571592 28.9624521
-15.5177509 -2.4364205 32.0143973
-17.3889650 -2.3577805 31.5290587
-18.4736713 -2.3688733 30.3546936
-18.9685236 -2.4507678 28.6083542
-18.5574750 -2.6455098 25.9188184
-17.4640425 -2.9313972 22.4220456
-17.2799459 -3.1130562 19.7295003
-17.8270578 -3.2076307 17.7352182
-18.8104050 -3.2487741 16.1807835
-19.9956695 -3.2646124 14.8389813
-21.3207549 -3.2621009 13.6574464
-22.6999730 -3.2519972 12.5456494
-24.0238383 -3.2492683 11.3686637
-25.3121735 -3.2515155 10.1460182
-26.5464928 -3.2617604 8.8471393
-27.6021159 -3.2991892 7.2846272
-28.4719662 -3.3666505 5.4201235
-29.0733748 -3.4790696 3.0946473
-29.4588193 -3.6311022 0.3440434
-29.7323295 -3.8084707 -2.7025986
-30.1363814 -3.9723467 -5.6569534
-30.7471171 -4.1086795 -8.3678053
-31.4188868 -4.2410311 -11.0721756
-31.6975422 -4.4510108 -14.6373774
8.3306536 -5.4538998 35.6069979
6.3612014 -5.3814004 34.7480362
4.8803836 -5.3655157 33.5918990
3.6614135 -5.3810676 32.2620066
2.6380926 -5.4212557 30.7871298
1.6633723 -5.4687271 29.2608670
-16.2174565 -3.9648910 32.6333264
-17.6762310 -3.9263774 31.7964666
-18.5669613 -3.9661631 30.4492133
-18.8357536 -4.0959017 28.4873319
-18.1669311 -4.3659916 25.5362212
-17.0535488 -4.7110871 22.0043217
-16.9409555 -4.9182367 19.3715994
-17.5408858 -5.0239884 17.4211415
-18.5535087 -5.0693923 15.8872298
-19.8209834 -5.0760718 14.6298026
-21.2194682 -5.0618150 13.5281093
-22.6722622 -5.0380328 12.5021540
-24.0484930 -5.0261513 11.3896078
-25.3900267 -5.0197175 10.2371022
-26.6360170 -5.0297217 8.9555730
-27.6827089 -5.0757568 7.3818940
-28.5424039 -5.1579174 5.5034704
-29.1743810 -5.2862037 3.2257537
-29.5671774 -5.4659357 0.4890375
-29.6941816 -5.7058845 -2.7980023
-29.8127470 -5.9588731 -6.2495209
-30.2380463 -6.1613004 -9.3160388
-30.6861431 -6.3689896 -12.4730999
8.7256892 -7.3586083 35.3882475
6.6431113 -7.2595699 34.5919505
4.9704637 -7.2149150 33.5556692
3.6543682 -7.2194476 32.2892148
2.4449065 -7.2394226 30.9456004
-14.7431810 -5.6206881 33.4856599
-16.6094813 -5.5132325 32.9847252
-17.8637678 -5.5002728 31.9742337
-18.5864996 -5.5734255 30.4752421
-18.7205435 -5.7465233 28.3831980
-17.9661972 -6.0752104 25.3420302
-16.9332630 -6.4631434 21.8843434
-16.8778080 -6.6943682 19.3062643
-17.5030448 -6.8130665 17.3793711
-18.5559624 -6.8587680 15.8877276
-19.8581105 -6.8602384 14.6689682
-21.2823774 -6.8388084 13.5978815
-22.7850632 -6.8015032 12.6349222
-24.2385924 -6.7722926 11.6252951
-25.5616146 -6.7678852 10.4541048
