9.2171369 -8.4181204 36.6892501 0.5776943 -0.3018742 0.7583807
-6.5327051 0.2307612 -9.1025472 -0.7986132 0.5644498 -0.2088379
-1.6545683 4.5852242 20.8484542 0.1687285 -0.9852280 -0.0292654
1.3919230 -8.7529278 36.4942680 -0.0000502 -0.9999973 0.0023055
9.5904163 -3.4820221 24.0125169 -0.3075339 0.2972426 0.9039191
-5.5049304 5.1693697 8.6288898 -0.0066189 0.9999781 -0.0001215
8.2387248 -11.3318470 7.6792664 0.7419058 -0.6704821 -0.0054319
7.9080281 -11.6773024 24.2540977 0.7527070 -0.6583532 -0.0018158
4.7740880 5.9516413 14.6203425 0.9999605 -0.0038005 0.0080294
-3.4900999 -0.6224808 22.1123745 -0.0773187 0.9961535 -0.0412312
-9.1079192 -0.6688395 8.6149112 0.1057066 0.9943185 0.0125217
10.6368411 -5.3618536 5.5030707 0.9998257 0.0121606 0.0141698
4.1361454 -0.5756433 16.0765810 -0.8405261 0.5399927 -0.0438601
0.4983827 -14.2867105 29.8078200 0.2369441 -0.9715228 -0.0009384
4.8343204 5.3506380 1.8290575 0.7577591 0.6488717 0.0690412
7.5824374 -0.5973117 -5.2543041 0.6941806 0.7193080 -0.0266330
4.8421789 4.5745793 -2.9050111 0.5658780 0.7061798 -0.4255492
4.9027169 0.5871777 -29.0717629 0.8694609 -0.1743304 -0.4622193
-10.3436864 -8.2887700 35.4037270 -0.9018843 -0.1401338 0.4086163
4.1810658 -3.3627137 -24.8054924 0.8037049 -0.4964020 -0.3280907
-10.6874275 -2.5005969 -4.5248186 -0.9889826 -0.1422239 -0.0410576
5.6760331 3.3214451 -3.5467611 0.7521396 0.5593774 -0.3484005
-2.9557208 4.6141068 25.6998069 -0.0217172 -0.9300765 -0.3667235
8.4059224 -2.3749353 23.6122019 -0.0496162 -0.2577211 0.9649446
8.6299462 -0.6103422 1.7228393 0.0188179 0.9996491 -0.0186424
-3.2742812 11.7492389 15.1139675 -0.8727615 0.4114891 -0.2626101
0.8248931 -14.2121957 19.9077473 0.2623923 -0.9649457 0.0054877
-0.6386823 7.8690090 21.0693471 -0.3445846 -0.0760690 0.9356682
3.3132250 0.0278063 -29.4531512 -0.7868198 0.5385723 0.3014209
4.4701437 -7.5115916 -18.5689722 0.7710886 -0.5050315 -0.3877699
7.6037492 0.2424703 -3.0514217 0.9873387 0.1584972 -0.0064054
-0.2408339 -14.3492430 22.2079506 -0.1513719 -0.9884566 0.0063351
-4.9854258 -12.5540594 -5.4443285 -0.4092894 -0.9011553 -0.1428332
5.2458247 -13.0384809 17.4669616 0.2342547 -0.9721704 -0.0030738
10.1253037 -6.4956013 30.7678319 -0.5626887 0.8266337 -0.0076246
4.5370345 -10.3374213 -13.0248512 0.6480954 -0.6975272 -0.3056602
0.8884474 -7.0735898 30.9582763 -0.0006099 0.9999998 0.0000468
3.4567582 -13.5106384 12.7494325 0.2686145 -0.9632425 -0.0031762
6.4806002 -12.6930746 2.9850824 0.2892513 -0.9565914 -0.0355884
8.6302766 -3.3438199 -13.4448196 0.8380179 -0.4449722 -0.3157939
-4.4107199 6.8253546 9.5648409 -0.9994596 0.0153481 -0.0290686
10.6188352 -6.0083880 16.9800363 0.9993693 -0.0349697 0.0061686
-3.9277695 -13.2968841 1.5408785 -0.2476452 -0.9673258 -0.0543385
-8.6674691 -0.6930875 10.4268420 -0.0086642 0.9996469 -0.0251193
0.4047104 -4.8916552 24.9040360 0.4711102 -0.6888737 -0.5509158
-0.8877174 -0.6708598 -30.6196198 0.0328178 0.9993684 0.0136296
-8.4049990 -0.6954711 8.8361606 0.0254078 0.9996743 0.0024045
9.8204960 -0.8365607 -12.3082624 0.9323533 -0.3196778 -0.1688888
-7.8374464 -0.5984319 13.5253099 -0.5765428 0.8169972 -0.0106750
-7.2723967 0.2859255 -5.6910453 -0.9284564 0.3370005 -0.1562032
1.0903506 0.4619949 -33.9947599 -0.7197864 0.5694005 0.3971028
7.7102510 -0.5607157 -2.8929272 0.6715651 0.7408129 0.0140164
10.6345360 -4.2200512 3.6992487 0.9988021 0.0417444 -0.0255294
1.0110738 -13.9667310 -7.7401003 0.4550545 -0.8904593 0.0027608
3.5159557 -10.4161196 -14.8436241 0.5786987 -0.7494402 -0.3216321
8.8787574 -0.6881263 -6.4090627 0.0020014 0.9984822 0.0550385
10.6580465 -8.2278032 32.1299671 0.9989427 0.0453457 0.0075675
-4.6843916 -7.2557164 -18.4667316 -0.7731079 -0.5050931 -0.3836473
-10.1059848 -9.3033119 13.1092915 -0.7074019 -0.7068060 0.0027760
-2.5180543 0.8779023 25.7541216 -0.6427236 0.7656884 -0.0250554
9.6610328 -9.7006690 4.0888563 0.7401892 -0.6675993 0.0801948
0.1738227 4.6084381 16.8633447 0.0316711 -0.9972093 0.0676056
-0.6224927 -5.6487520 -27.8924914 -0.6758541 -0.5940769 -0.4362268
-2.0885568 -7.0733088 29.4524151 0.0050369 0.9982233 0.0593699
-10.4822924 -1.2440236 -8.1343430 -0.9688688 -0.2031936 -0.1414414
-10.4426532 -3.7613823 6.4533621 -0.9935752 0.0869613 0.0724291
-5.5758551 4.5376821 20.5041869 0.0338896 -0.9979888 -0.0535711
-3.9540106 -13.3710759 30.8400661 -0.2393980 -0.9708983 0.0067117
1.8451366 -13.9481492 9.4865714 0.2511628 -0.9679419 -0.0023924
-3.9590042 6.3533758 1.5424073 -0.1595535 0.9539291 -0.2540904
7.5568861 0.2011079 -0.6814267 0.9591715 0.2827741 0.0053746
-5.9248022 -5.4120120 -18.2748109 -0.8334694 -0.4382795 -0.3365114
10.6495791 -7.4149688 24.9137395 0.9998945 0.0140889 0.0035418
6.9685458 -1.0819020 29.6956916 -0.0077341 -0.6398205 0.7684855
-10.6656958 -8.5937276 6.7793622 -0.9328347 -0.3602979 0.0022064
0.6347948 -8.6836428 -23.5952331 0.6053871 -0.7007890 -0.3773609
-8.5073174 -0.6564172 -9.0756784 -0.0074559 0.9997205 -0.0224370
0.6712435 -0.5916598 -18.0625564 0.0459242 0.9729477 -0.2264148
-7.4313597 -6.3720145 37.0769869 0.0125169 0.9998338 -0.0132547
2.3795751 5.2369392 22.2715116 -0.0813151 0.9937770 -0.0761253
1.3353048 6.8551114 25.7378136 -0.0017179 0.9609829 -0.2766025
-5.6342961 -0.0044579 -24.3786068 0.7870864 0.4858249 0.3800910
4.4465598 -8.8536685 34.0009012 -0.0565158 -0.5170525 0.8540859
1.9663127 -5.3223074 26.9907927 0.2528749 0.8196018 0.5141081
-2.8612966 10.4617670 10.3021545 -0.3852136 0.9046999 -0.1820123
9.5864075 -9.8444493 24.8581603 0.7174585 -0.6965769 -0.0058288
-5.2726918 -11.2864235 -8.8868432 -0.6984854 -0.6749422 -0.2378468
3.8837433 -8.9172440 -17.5532135 0.6574114 -0.6711300 -0.3426292
-10.0569002 0.7987743 17.1151722 0.6996275 0.7143438 0.0153071
5.0557378 -0.7117120 -18.5495339 -0.0726303 0.9971363 0.0210711
-0.4454087 4.6407223 20.1915851 0.0014120 -0.9891133 0.1471493
7.2967446 -7.0894985 32.1020303 0.0564549 0.9955103 -0.0759745
10.6322567 -1.1218589 -3.4036480 0.9975139 0.0657535 0.0253488
0.3103471 -4.5027124 22.0621025 -0.0989310 0.2874341 0.9526774
2.5643744 -8.6109518 -20.5307170 0.6569672 -0.6554015 -0.3726164
-7.6777825 -7.0767348 25.7299511 -0.0016153 0.9998766 -0.0156261
1.2366480 2.8751154 -8.0727320 0.1111565 0.8680811 -0.4838175
-2.8148152 9.3878888 15.6032322 0.5505339 0.8314540 0.0748111
6.0562290 6.9007869 25.7389593 0.0232532 0.9992934 0.0295286
10.6781981 -1.3426367 19.2324546 0.9808647 0.1939510 0.0169527
1.9149320 4.5547691 15.0051971 0.0008850 -0.9999713 -0.0075292
7.1458227 2.5810310 8.3900047 0.9969979 0.0764446 0.0123074
-10.7177334 -6.6856078 10.6355378 -0.9994269 0.0311383 0.0132795
-4.7676929 6.5076497 18.0397578 -0.9999995 -0.0003184 -0.0009817
-10.6439358 -3.6545791 14.1762918 -0.9651703 -0.0500722 -0.2567862
-6.1868404 -12.7794106 32.6605888 -0.2266586 -0.9739647 0.0043237
0.8024959 -14.2117399 6.0143598 0.2641463 -0.9644486 0.0080964
7.1273755 4.3478243 5.1699538 0.9995789 0.0084607 0.0277574
10.2431908 -8.8541355 1.9324446 0.7918456 -0.5967749 -0.1297698
2.5383370 -13.7652478 27.9658218 0.2591611 -0.9658340 0.0005115
4.6023572 9.2368937 15.7028820 0.8485305 0.5290873 0.0079152
-5.9321291 -12.8092898 2.1275731 -0.2406640 -0.9697896 -0.0398627
4.8232178 -13.1310705 21.9937511 0.2389376 -0.9710273 -0.0038417
2.4972082 -0.9623692 29.7720352 0.0064839 -0.4446060 0.8957028
-5.5045423 -5.3288977 24.7745875 0.7425861 0.2591464 0.6175832
-0.6173956 -8.3497959 -24.1436456 -0.6714382 -0.6026779 -0.4312192
-7.6472594 -0.6537459 -16.3697184 0.0783323 0.9962931 0.0355552
-2.3300823 -0.8472637 -31.9144264 -0.6288066 -0.6516436 -0.4242203
-4.5839041 -9.2899199 -15.3554868 -0.6466667 -0.6930319 -0.3186360
-1.5913693 9.7059433 5.3054918 -0.0706966 0.9911555 -0.1123067
-0.2278210 9.9064030 19.7909016 0.2501714 0.8925078 -0.3752920
10.6290150 -4.2780928 15.0124564 0.9997518 0.0154313 0.0160695
-4.8729332 0.6973589 -29.0926079 -0.8921541 0.1773481 -0.4154620
-7.0154638 4.4766631 15.3974676 -0.9990491 -0.0267283 -0.0344450
4.1621184 -0.7121567 -19.9772862 -0.0281306 0.9995695 0.0083298
10.0519351 -9.3583463 24.4233415 0.7242085 -0.6895566 -0.0058039
6.2036827 0.1793860 -10.3671350 0.7354851 0.6316506 -0.2451105
3.5635843 -6.6464426 24.6215309 -0.0509284 0.2913025 0.9552744
0.0813945 0.2920534 -16.2027836 0.0310015 0.9438431 -0.3289365
-3.6422073 10.1019669 12.6897272 -0.8969451 0.4339227 -0.0848569
-8.8867010 0.8460654 -15.7385748 0.5988912 0.7855950 0.1554664
-8.4939971 -10.6478983 34.9035098 -0.5602049 -0.6550623 0.5070147
-10.2097714 -5.6249418 -3.7768576 -0.9600444 -0.2209044 -0.1718024
1.6847467 -7.1417389 26.8711914 -0.0190006 0.9978753 -0.0623205
-6.9396446 0.8281998 -22.2195711 0.6404598 0.7360917 0.2190439
-5.6868775 4.7889056 19.7471119 0.0200664 -0.8149760 -0.5791472
-3.3234633 6.3847885 1.2198795 -0.1669269 0.9583945 -0.2315501
-7.8798564 -11.7316499 6.9854409 -0.7311644 -0.6821913 0.0036982
5.6213604 -12.9441534 11.4952451 0.2455687 -0.9693776 0.0017741
-3.1366206 0.2836890 -15.3259060 -0.2570770 0.9109976 -0.3224822
7.8806572 -11.6853393 26.5730562 0.7703324 -0.6375705 0.0095803
4.1721985 -0.6988940 -23.5531575 -0.0275778 0.9986081 -0.0449601
-2.5682784 -13.6091799 0.9757877 -0.2424086 -0.9684937 -0.0570790
-9.6708596 -7.1093486 36.3275805 -0.7479345 -0.0600522 0.6610504
-1.8963124 -0.3620406 21.9607732 0.9984342 0.0557787 -0.0042291
-0.3503289 -5.7581824 22.3816804 -0.0093240 0.1839663 0.9828883
1.9495022 -0.6394461 -30.3760721 -0.1063819 0.9934564 0.0415610
10.6397282 -4.6915169 5.1020278 0.9995282 0.0059117 0.0301397
2.2170944 4.5732073 17.0790056 -0.0676029 -0.9973340 0.0274718
7.1957855 3.1412176 14.9716189 0.9974734 -0.0435179 0.0561517
-8.4727073 -7.1458085 25.1002947 -0.0227063 0.9979373 0.0600462
5.2593119 -0.1065900 29.8019063 -0.0000995 0.0052816 0.9999860
0.9014817 -7.1633486 26.8991768 -0.0224934 0.9997429 0.0028449
-4.4669188 -6.1341187 -20.3595941 -0.7675091 -0.5165793 -0.3795730
10.6679710 -1.9348110 -0.2042740 0.9940848 -0.0905528 0.0599631
8.5075540 -0.6150197 0.2127047 0.0107848 0.9999275 0.0053593
3.8450787 6.8697443 3.1546724 0.2254494 0.9363773 -0.2690170
1.2814831 5.2656903 26.1432122 0.0046168 0.0729809 0.9973227
2.5239173 -11.2726471 -14.3825723 0.4636369 -0.8240280 -0.3256051
-4.4498938 -13.2482358 16.0792537 -0.2473110 -0.9689359 0.0006746
5.4820358 5.1229321 9.5317056 -0.0325177 0.9932279 0.1115386
7.1768013 6.3210095 6.2614064 0.9986835 -0.0469112 -0.0207494
-9.1993801 -0.6614786 9.9615803 0.1501335 0.9886532 -0.0049759
-1.4615906 -14.0320265 32.4904927 -0.2444896 -0.9696380 0.0051844
-10.6804892 -4.2422103 22.4245529 -0.9916379 -0.0629720 -0.1126444
-4.5802261 -0.6866447 -20.6453711 0.0007834 0.9999548 -0.0094790
-1.1070956 -14.1310630 11.3360433 -0.2513148 -0.9678975 0.0039259
0.7973560 -14.0722941 -6.2819633 0.4604972 -0.8875996 0.0104535
-10.7267227 -6.3576849 9.0572386 -0.9999020 0.0103435 -0.0094363
-6.5540015 6.3380624 18.6940411 0.9980223 0.0550003 0.0304366
10.0336106 0.8242230 2.4394415 -0.7093408 0.7046347 -0.0180437
-9.3917474 0.0411253 -11.5765378 0.9783748 0.1980436 0.0596781
5.7087933 5.0830632 7.7708604 0.0268108 0.9995186 -0.0156151
-1.1819410 -10.3404654 -18.6815695 -0.4318608 -0.8424593 -0.3221159
2.9206810 -13.1499693 -4.3065009 0.2696718 -0.9609071 -0.0627269
-3.4449374 -1.1588819 29.1648751 -0.0230077 -0.9975686 -0.0657834
6.4432312 5.9119911 11.2303947 -0.9816598 0.1864305 -0.0398463
-9.1927733 -0.6833698 21.9121737 -0.0111901 0.9998760 -0.0110776
-7.8222846 -0.6761535 22.8880061 -0.0050304 0.9995542 0.0294297
-7.6691240 -0.5557434 -3.1062533 -0.7545832 0.6562043 0.0002843
5.1681460 -7.0945406 31.4092562 0.0137129 0.9989480 -0.0437585
5.6267028 -1.6280298 -24.3014768 0.7972417 -0.4916516 -0.3502632
0.6799156 -11.6486617 33.9920032 0.0009538 0.0015194 0.9999984
7.1289988 -0.6756290 -13.7904144 -0.0454287 0.9989632 -0.0029485
-2.6397563 -4.6453257 24.2993713 -0.9127309 0.0951607 0.3973245
-10.7203380 -7.2519876 9.3636525 -0.9999120 -0.0126170 -0.0041015
0.6520691 0.5574679 -15.3655402 0.0338824 0.9542516 -0.2970790
-6.8073277 -10.7675153 -5.6275738 -0.7061348 -0.6767200 -0.2083834
-1.1228950 -1.1409414 29.0540912 -0.0206703 -0.9569617 -0.2894773
-10.1752292 -1.2337305 24.7584730 -0.1872906 -0.9822902 -0.0053030
4.5977781 -0.6877252 22.1379010 0.0061171 0.9999596 -0.0065888
4.1424608 3.3216998 15.0678708 -0.9996588 -0.0140423 -0.0220260
-1.8824601 0.4032327 21.3494153 0.9927321 0.0810747 -0.0889369
5.3306205 5.0471651 22.3809691 0.0986722 0.9951081 -0.0048677
10.3144910 -4.5417011 -4.2181046 0.9789585 -0.0888421 -0.1837045
-5.7339710 -0.7534382 27.8392598 -0.0521110 0.9823847 -0.1794569
-4.7243013 5.7389522 19.2263214 -0.9874096 0.0055818 -0.1580857
-5.4428626 -8.9629029 -14.1882245 -0.7028178 -0.6427030 -0.3049262
8.1158727 -11.4652741 9.5359215 0.7372604 -0.6755957 0.0041865
-5.3183635 -7.0635350 34.7883412 -0.0013401 0.9998963 0.0143397
0.6310888 -14.2638985 8.7279552 0.2586826 -0.9658695 -0.0133966
4.7580598 6.5470782 11.1253544 0.9983269 0.0386582 -0.0430002
2.5573062 7.9458201 4.9232400 0.5153945 0.3728134 -0.7716079
1.5386857 9.2794332 17.6079944 -0.0158893 0.9996807 0.0196489
-3.8661545 0.0139649 -15.2969129 -0.4329963 0.8024925 -0.4105119
9.1255774 -7.0288697 24.9443486 -0.5617307 0.6998583 0.4411994
-0.0479489 -14.3762238 -3.0302351 -0.0823134 -0.9966065 -0.0003000
1.5952227 -13.6623066 -6.2372123 0.4498321 -0.8930973 0.0053123
4.1993452 8.4894132 21.0370375 0.6131350 -0.0149041 0.7898375
-5.2727072 -2.8467338 -23.3433727 -0.7549312 -0.5405776 -0.3712880
3.5934512 10.7636851 14.9017850 0.9213967 0.3808159 -0.0775068
-4.7694241 5.6857278 17.9943979 -0.9997648 0.0207902 -0.0061740
4.9035086 5.3068217 3.0323187 0.4497261 0.7868080 -0.4227051
2.3400496 -0.8560118 26.0091042 -0.4286240 -0.8961366 -0.1149811
10.6684518 0.7457614 21.5993290 0.9356002 0.3530602 0.0008245
6.8630918 2.4711873 15.3482662 0.9886893 0.0368287 0.1453863
4.6651542 9.0810220 17.1517801 0.9417590 0.3358604 0.0169617
-0.1856735 4.5524206 15.4290819 0.0019086 -0.9999835 0.0054214
-6.8707215 -7.2043597 -13.5115263 -0.8366015 -0.4418131 -0.3238812
0.4542979 -0.7036534 -24.5420600 0.0254757 0.9996613 0.0053248
2.1662429 0.5754555 -32.2888660 -0.6673345 0.5357603 0.5173254
-10.7322256 -3.1102927 23.9835930 -0.9853656 -0.0373596 0.1663094
-10.7271030 -1.1092870 -5.6061845 -0.9997871 -0.0174519 -0.0110061
6.8606422 1.7401032 20.7498771 0.1330231 -0.4720313 0.8714880
-10.0350810 -5.8060138 27.2784792 0.7242786 0.6313636 0.2771290
4.7596660 8.3365976 7.8542333 0.9985770 0.0338001 0.0412492
2.8680137 -9.0630490 -19.1226896 0.6070508 -0.7214234 -0.3332229
-3.7801381 -0.6915570 -23.0806959 -0.0028356 0.9999913 0.0030546
7.1285445 4.0435372 8.0036449 0.9995011 -0.0310902 -0.0055620
-6.8972948 0.7455428 29.7556595 -0.0925665 0.4282953 0.8988852
-7.0480811 -0.6915191 22.0998533 0.0168594 0.9995684 -0.0240566
9.6191564 -7.0974640 27.6170230 -0.0137682 0.9999049 -0.0007394
-0.7573033 4.5299466 18.1878059 0.0264557 -0.9987655 -0.0420421
-1.9850062 -11.2825511 -15.1149443 -0.4261935 -0.8464632 -0.3191538
8.5734127 -10.9402154 21.8815473 0.7427818 -0.6695333 0.0006320
10.4412531 -2.5176519 6.5175090 0.9909954 -0.1338891 -0.0013186
3.6622128 1.6142598 -10.4213857 0.2257929 0.9364754 -0.2683865
-2.9592496 -7.0800766 35.2424489 0.0003162 0.9972155 0.0745732
0.2805219 3.2274552 -7.5875160 0.0150299 0.8533359 -0.5211449
-6.4040615 2.1722889 20.3645116 0.9986517 0.0488357 0.0176042
-7.7019283 -5.0477598 -14.1455013 -0.8847084 -0.3753322 -0.2764360
0.8277230 2.2044490 -9.4885139 0.0351976 0.9462468 -0.3215247
1.2396877 -14.1046856 20.5401549 0.2452835 -0.9694506 -0.0012146
-1.2286034 11.8622673 13.9949645 0.3727893 0.1477709 0.9160742
4.1209811 2.0463246 14.2861883 -0.8437755 0.0385070 0.5353132
-1.2427028 9.3210247 16.5658924 0.0234014 0.9968295 0.0760488
-5.7888199 2.6653789 -4.4620252 -0.7437109 0.5980648 -0.2986849
-8.5385329 -11.0137217 12.0728381 -0.7391569 -0.6735302 -0.0020343
3.2159552 -7.0677606 35.0753484 0.0004197 0.9999947 -0.0032136
-8.0238046 -0.6798434 14.1642297 -0.1722770 0.9848477 -0.0198883
1.1535419 9.2881757 16.1664357 -0.0791816 0.9959818 0.0418403
1.5189127 -10.6736531 -17.3306656 0.4298228 -0.8443069 -0.3199972
3.1888045 11.3054493 14.3902451 0.6675519 0.6883613 -0.2837837
3.7323338 -8.7568600 35.5527426 -0.0001040 -0.9999318 -0.0116820
8.4936464 -8.2809585 -7.2624666 0.8586534 -0.4353708 -0.2704932
0.7347695 -10.1395635 -19.8306730 0.4238524 -0.8444556 -0.3274810
-4.2329109 9.6957130 16.4553035 -0.7974849 0.6015914 -0.0458863
-10.0788212 0.7939790 19.6713123 0.6615588 0.7496300 0.0198690
-5.3866931 -0.7270758 22.9657778 -0.1632241 0.9850358 0.0553389
6.8534161 -12.6024207 10.5900057 0.3670806 -0.9301105 0.0120964
-0.2124640 -14.4332219 33.5293652 -0.2468166 -0.9456275 0.2118257
7.0383603 2.2795373 -1.8822552 0.8351948 0.5107791 -0.2038487
-0.1439396 5.0237673 -4.6097038 0.0050696 0.9101582 -0.4142298
1.0447458 -7.0721861 25.3406278 0.0018228 0.9998902 0.0147035
0.9756923 -7.0723798 24.5518939 -0.0168554 0.9996651 -0.0196373
4.7016044 -13.1730953 25.4521742 0.2473771 -0.9689187 0.0010693
0.3479898 4.6366045 23.1797763 0.0489382 -0.9987947 0.0037659
1.4505162 3.6936329 14.1522679 0.0481068 -0.0641678 0.9967789
-7.2135335 2.9184468 6.3815101 -0.9981912 0.0498635 -0.0335856
10.3918084 0.6365452 -11.3930230 0.9781697 0.1590180 -0.1337811
1.7993741 -13.9226909 2.8895152 0.2534690 -0.9664629 -0.0412657
-5.4710081 -12.9826551 27.6591859 -0.2629801 -0.9647947 0.0035554
-0.4868006 -14.2913082 29.9044835 -0.2348945 -0.9720186 -0.0020869
-7.2337770 2.7184960 1.0702858 -0.9997471 -0.0084477 0.0208431
10.6243816 -0.1372231 7.9240308 0.9994668 -0.0299317 -0.0130460
10.6412644 -4.4774047 4.3814404 0.9998923 -0.0053902 -0.0136533
-4.1449874 0.2347714 17.4617274 0.9998863 -0.0150805 0.0000640
8.1336937 -11.3496271 28.0178626 0.7674269 -0.6409529 0.0153388
-5.4868170 5.1031690 24.8488939 -0.0776257 0.9947242 -0.0670678
-9.7642236 -0.5753738 5.4167070 0.0696907 0.9974849 0.0129285
2.5829285 -0.2075130 -16.5812533 0.2389666 0.7909566 -0.5632784
-4.4258693 1.3518855 19.5954731 0.2265153 0.6550091 0.7208702
-0.3136127 -9.1493010 -22.9687096 -0.3396804 -0.8829360 -0.3241006
-10.6542873 -3.9131899 20.0281556 -0.9906911 0.0470579 0.1277365
-8.9652961 -5.8103946 -9.0433226 -0.9116710 -0.3295090 -0.2455193
-2.8907702 -4.5743392 -25.6492168 -0.7223013 -0.5624510 -0.4024050
-4.6765204 9.0772336 10.6277103 -0.8843476 0.4666209 -0.0139397
3.2229366 -9.9184213 33.9947072 0.0004788 0.0008849 0.9999995
-7.0633338 3.4947452 15.5431815 -0.8993922 -0.3266238 0.2905349
4.5979013 -1.1273507 28.6178985 0.0087856 -0.9998792 -0.0128245
-8.1990893 -11.3902035 30.5664572 -0.7360887 -0.6768574 0.0061238
1.9608277 -7.0637033 -23.7882233 0.6950018 -0.5822939 -0.4217894
6.4756189 4.6512121 16.8722176 -0.8478594 -0.4905516 0.2012303
5.8460558 -1.0802548 27.8408041 0.0093204 -0.9940962 0.1081012
-5.9157858 -10.5977726 -8.9682482 -0.6981784 -0.6773444 -0.2318435
-1.1501428 -12.0646151 -14.1039648 -0.4187113 -0.8526451 -0.3125334
-10.6288705 -3.2676773 19.1627346 -0.9599929 -0.1019052 -0.2608235
-1.4460328 -14.0447917 5.5109839 -0.2580182 -0.9661343 0.0033360
9.1421683 -0.6864463 17.8648657 -0.0054095 0.9999524 -0.0081171
1.8620423 -11.0840781 -15.7854426 0.4206821 -0.8468139 -0.3254732
-6.6404605 -0.1249538 -21.5553802 0.8752803 0.3594919 0.3234966
10.6356647 -7.1494362 13.6124789 0.9999582 0.0047199 0.0078328
-2.4143559 -5.9299184 -24.5916607 -0.7053385 -0.5746610 -0.4150450
-8.0135827 -0.6844164 21.5564313 0.0160443 0.9995518 -0.0252725
10.6299375 -1.5377750 -1.8262023 0.9994269 0.0312918 0.0129108
7.1202707 3.7592103 3.5857821 0.9995043 -0.0276936 0.0149747
0.1157655 -0.6934503 -23.7661711 0.0230479 0.9997259 -0.0041105
10.5481482 -8.7456299 12.3643614 0.8913146 -0.4533850 0.0006555
1.7484326 -6.8988944 22.7318410 -0.4449843 0.5079043 0.7375786
7.5235136 -0.7129352 -14.8321177 -0.0088707 0.9958407 -0.0906783
-4.1042965 -3.3009152 -25.0663030 -0.8027411 -0.4953173 -0.3320655
-8.8526477 -10.6699449 14.1442524 -0.7377730 -0.6750484 0.0008054
-6.4423610 1.5209077 20.3436045 0.9247041 -0.1779674 0.3365264
6.8778010 -2.0409833 -20.6226921 0.7936208 -0.4904476 -0.3600377
9.0620422 -5.7574125 -8.7016364 0.9189821 -0.3129552 -0.2398560
-10.6066719 -8.7202679 11.7306202 -0.8767711 -0.4809072 -0.0007921
8.8903444 -0.5823528 25.3903798 0.1007118 0.9942905 -0.0352633
-7.0026258 4.2723577 5.9293892 -0.9872636 0.1516082 -0.0482247
-5.2014789 -7.6906060 -16.8247818 -0.7797926 -0.4970520 -0.3806085
-10.3298115 -2.0010461 -8.0707208 -0.9659838 -0.2110680 -0.1494175
7.2515319 -1.2485408 29.2745112 -0.1102523 -0.9916115 -0.0674618
2.4808349 -0.7000097 17.0809766 0.0334045 0.9986586 -0.0395631
4.7692801 5.9588030 11.5938913 0.9996277 -0.0244651 -0.0120831
-1.1447599 -1.1220906 28.1112485 0.0380339 -0.9777386 0.2063509
2.8001128 -13.6947102 27.2402593 0.2610082 -0.9653356 -0.0013584
-10.4310506 -3.6184843 17.8438067 -0.9983004 0.0554798 0.0178397
2.2703558 -5.5423429 26.6866372 0.9942570 0.1053722 -0.0187028
0.8541843 0.4510714 28.0618591 0.0016647 -0.1262854 0.9919926
3.4175036 13.3876716 22.6913165 -0.0836935 -0.9464813 0.3117188
-2.6479928 -0.6864878 -24.1955667 0.0019620 0.9999971 0.0013860
-5.8556838 -3.4617088 -21.2187122 -0.8095774 -0.4795798 -0.3385081
-0.9734818 -0.6810487 -26.2004342 -0.0065159 0.9999750 0.0027478
-6.5638505 -8.7636367 -11.9013241 -0.7516278 -0.5900422 -0.2947981
2.5255263 2.8240471 -7.6805841 0.2311752 0.8616744 -0.4517468
-10.7145536 -3.7146823 14.9514695 -0.9987198 -0.0463998 -0.0201448
2.9028963 -8.7592502 35.8688587 0.0002290 -0.9999950 0.0031396
-10.7012310 -4.9524278 9.4042785 -0.9995743 0.0217316 0.0194671
3.3924434 -12.8702333 -7.1406921 0.3391799 -0.9403560 -0.0262215
-9.4701829 -9.9879056 15.6930898 -0.7447580 -0.6673343 0.0006714
0.0486727 4.5950835 17.5654058 0.0544266 -0.9972975 -0.0493504
6.6474686 -9.7645680 -9.2048750 0.6925497 -0.6842336 -0.2284717
0.0638513 -14.3414562 1.1996428 0.0867141 -0.9956964 0.0327016
-10.6778352 0.7823819 12.2132194 -0.8491496 0.5277916 0.0195171
-4.0881210 7.6879480 21.0984246 -0.5861591 0.0168706 0.8100203
-1.7845547 -9.9738913 -18.7591821 -0.4928647 -0.8092642 -0.3196495
4.5704020 -9.3684422 -15.2084322 0.6424996 -0.6992322 -0.3134782
5.6655125 4.8835338 19.6624640 0.0077624 -0.6360625 -0.7715985
-7.0275062 4.9898572 14.0001294 -0.9997657 0.0206042 -0.0066385
-1.7164720 -5.7439870 22.3473853 0.2706390 0.2807401 0.9208363
10.0963784 0.8835912 12.3611913 -0.5580793 0.8292674 0.0293789
-7.5233079 0.1407238 28.9183540 0.1591553 -0.0006378 -0.9872534
5.2728259 -13.0303967 8.4241289 0.2338359 -0.9722743 -0.0018773
10.2777116 -2.5156288 -7.5607818 0.9693683 -0.1891513 -0.1566743
-8.0158556 -11.5898749 27.8231197 -0.7318399 -0.6814706 0.0028673
-5.7959928 -11.5916871 -6.3917678 -0.7014123 -0.6781072 -0.2195254
10.6128957 -6.7001610 32.8688795 0.9194663 0.3916732 -0.0342631
6.0107611 0.5140304 18.2602916 0.1112707 0.7781591 0.6181320
-5.9724371 -0.5798160 25.2785051 -0.1203059 0.9702914 -0.2099076
0.4895428 -0.6892038 -30.6796071 0.0323393 0.9993120 -0.0181581
-10.2518583 -6.4428160 33.9537141 0.2058629 0.9783204 -0.0225736
8.1780388 0.4119330 -20.6533130 0.8909233 -0.3757226 -0.2551237
4.7034870 -7.0714687 29.2210615 0.0037094 0.9994741 0.0322129
7.3596078 1.3542789 9.1147174 0.9660135 0.2583240 0.0093092
6.4404256 5.7913524 7.7303312 -0.9927863 0.1165014 0.0283344
6.4175194 4.9169257 15.5595337 -0.9790781 -0.0907700 -0.1821179
-10.0012032 -9.2096536 2.3358130 -0.7189163 -0.6878945 -0.0998022
-1.7928190 8.6691101 4.7661008 -0.3965225 0.3782072 -0.8364982
-5.7945329 0.5254123 28.9819101 -0.0002330 0.0448233 -0.9989949
-3.3279874 3.8063365 -5.7223700 -0.3135072 0.8182390 -0.4818695
5.6202813 -0.0185051 -24.3742849 -0.7645922 0.4989115 0.4080271
7.0734048 6.7878330 24.1606544 0.7125686 0.7007335 0.0349069
0.7765784 -2.0198786 -32.7122704 0.6799198 -0.5896108 -0.4359682
6.4334968 0.2095108 -9.5742065 0.7751117 0.5916207 -0.2217810
6.1542909 -0.5597491 25.3985989 -0.0162936 0.9993861 -0.0310154
4.1494290 -1.2500282 25.8486497 0.0407950 -0.9972395 0.0620422
8.0203145 -11.4108819 34.2067525 0.7239815 -0.6343024 0.2711297
9.2930370 -10.1544970 27.3321803 0.7192365 -0.6945680 0.0165556
-2.6572563 -1.2620111 25.4653449 -0.0192451 -0.9987099 0.0469913
-10.6686093 -3.8208716 3.9913401 -0.9987743 -0.0178621 -0.0461617
4.5626192 9.3042507 20.0726681 0.7649806 0.6237710 0.1603571
9.9225627 -6.0588315 27.1476406 -0.9897681 0.1281225 0.0627997
0.8772042 -7.0673806 35.0537561 0.0007036 0.9999896 -0.0045047
-4.8560572 1.2055988 -10.3957001 -0.4316000 0.8614937 -0.2674885
-1.0599940 -0.6833824 -25.5329355 -0.0063544 0.9999793 0.0009670
-6.4314325 -9.1995558 -11.2746984 -0.7052477 -0.6543587 -0.2728376
-9.2762963 -1.6295652 23.5354521 -0.0542647 0.3574259 0.9323637
-6.5832723 -12.6799203 28.4937594 -0.2781177 -0.9604860 0.0108242
8.5449029 -7.1624071 30.9477993 -0.0015606 0.9999753 0.0068590
5.3328751 4.4286449 -2.4166315 0.6855335 0.6080833 -0.4003481
0.8061332 -6.5948005 -26.2922429 0.6678930 -0.6051806 -0.4332151
-7.1549442 3.6981352 7.4776917 -0.9953769 0.0658520 0.0699161
10.5371373 0.8763312 23.6032850 0.6450422 0.7632602 -0.0368038
6.1527956 -6.2402597 -16.5620626 0.8442197 -0.4388755 -0.3077034
5.0761314 -13.0737308 6.5091946 0.2330603 -0.9724599 0.0021302
-1.5951322 -14.0021939 13.6137233 -0.2618625 -0.9651035 0.0018051
5.3739269 5.1214244 23.6338096 0.1958074 0.9746991 -0.1078015
-10.7090873 -0.8892015 19.9469369 -0.9999824 -0.0037409 0.0046037
7.9625726 -11.5349123 28.7701714 0.7836161 -0.6210335 0.0162221
-3.6830197 -13.4406801 13.1801697 -0.2434960 -0.9699019 0.0000769
0.4905647 -0.1933704 27.2317248 -0.0000849 0.0163081 -0.9998670
7.5665654 -9.5094487 -7.1405149 0.7007264 -0.6835480 -0.2043148
-10.0356530 0.7441847 -13.2786567 -0.8883207 0.3974847 -0.2299833
-1.7191078 -0.9655745 29.7797726 -0.0043042 -0.4395526 0.8982066
-10.2500194 0.8751687 2.8069812 0.2442889 0.9694751 0.0209985
-1.5542660 -8.7499908 34.5171464 -0.0002862 -0.9985157 0.0544641
-5.5649925 -11.5894537 -7.1451853 -0.7024970 -0.6759505 -0.2226857
1.9285600 -2.4620336 -30.2507847 0.7011492 -0.5795077 -0.4154042
3.8201724 5.4253219 -2.1621398 0.2214051 0.9473433 -0.2313448
5.3584973 -7.0727793 34.3213309 0.0003540 0.9999770 -0.0067802
1.5414486 4.6351188 17.2139588 -0.0605509 -0.9977788 0.0277688
6.6266172 6.7095238 10.1547739 -0.8496605 0.5273096 0.0046386
-1.8576916 -4.8817909 26.2584816 -0.2007309 0.8198901 0.5361784
6.1784729 5.9320556 3.8440060 -0.0096359 0.7882218 -0.6153158
3.1333911 -0.9541769 29.7732186 -0.0042604 -0.4207568 0.9071635
2.1839197 -3.7714811 24.4985151 0.9026820 0.1399796 -0.4069041
6.8230188 -5.4793485 24.4282916 0.2625422 0.2012582 0.9436984
1.8434828 -0.5946416 14.7964177 -0.0101244 0.9997161 0.0215690
-4.7933525 -13.0142476 0.3161289 -0.2468962 -0.9679781 -0.0453936
-8.4522312 -0.6747166 22.7270868 -0.0119750 0.9997282 0.0200021
-4.8018466 0.2621321 -13.3770068 -0.5096774 0.8096404 -0.2910521
3.2918071 7.9673083 5.4604597 0.5373695 0.3493001 -0.7676089
8.9732240 -10.4998518 20.5630076 0.7360296 -0.6769391 0.0037271
10.6486889 -5.2239675 17.0775698 0.9993459 -0.0234351 -0.0275421
10.6299730 -6.5588578 30.4114074 0.8005908 0.5921376 0.0918010
3.7077966 -13.4445755 29.3390976 0.2674987 -0.9635504 0.0038782
-1.2360810 6.0534868 25.5112360 0.0004274 0.0010010 -0.9999994
-4.7713732 7.6763851 13.9606176 -0.9999078 -0.0130467 0.0037584
1.8340399 -7.0748771 33.2111493 -0.0001815 0.9999956 0.0029441
1.0571740 7.1924619 3.0915020 -0.0767154 0.9864796 -0.1448197
8.3631364 -6.6994192 -9.8103786 0.8898730 -0.3603211 -0.2798120
-5.7411527 -9.3095594 -12.7485941 -0.6854787 -0.6661971 -0.2937692
0.2765745 -4.7683840 -29.6510759 0.5841631 -0.6430220 -0.4952536
-10.6911586 -6.9651474 18.5143850 -0.9967318 0.0792376 0.0157233
-2.6198786 0.0551948 23.0925993 -0.9683510 0.2408969 -0.0653074
-7.9025073 -3.2945636 -16.0223105 -0.8913410 -0.3680626 -0.2646530
-6.0783164 -12.8166949 14.8263166 -0.2536369 -0.9672885 -0.0046226
-2.7300772 4.5258157 18.6251279 -0.0204778 -0.9997891 0.0015766
-3.0586042 -13.6001037 10.1338322 -0.2555557 -0.9667936 -0.0011647
-6.8563945 0.7598700 15.8938373 -0.9998928 -0.0145599 -0.0015235
-9.9321634 -0.0230130 -8.1609572 0.9939056 0.0641965 0.0896125
-0.5609073 -9.8303464 -20.8713149 -0.4091493 -0.8545042 -0.3200303
-9.3673088 -1.2427408 25.2951192 0.0083271 -0.9979818 0.0629523
10.6307037 -6.0241648 18.6433422 0.9984878 -0.0492825 -0.0243587
-3.7507090 -13.4235507 10.6597554 -0.2428654 -0.9700599 -0.0003904
-10.7126147 0.6187239 -2.2173338 -0.9638837 0.2662212 -0.0073788
10.6397384 -7.2870100 12.8295067 0.9999799 0.0024479 0.0058417
-3.6456070 -1.5436284 23.5462629 0.0060637 0.2469005 0.9690219
1.0979650 7.0950510 21.5848815 0.1204308 0.0824352 0.9892931
3.9684367 -0.6902902 -17.1213476 0.1064901 0.9937001 -0.0349290
-9.9146239 0.5129625 14.1077880 0.9645779 0.2623478 0.0276251
10.6724868 -7.9045573 25.6721806 0.9983845 0.0562238 -0.0082059
-1.3078747 10.8121791 20.9842138 0.9258033 0.0353022 0.3763536
-0.7803926 -14.2145337 32.1500084 -0.2661488 -0.9638498 0.0125823
-5.7043668 -7.5292596 37.4918633 0.0004408 0.0021858 0.9999975
-1.5154880 -7.1575346 31.5288462 0.0000219 0.9999913 -0.0041659
4.7394333 8.9171733 18.1048803 0.9790082 0.1902623 -0.0730977
1.0095240 4.6081233 16.7566579 -0.0024000 -0.9936110 0.1128336
-10.5832917 -3.1564536 -4.1093291 -0.9700785 -0.2279087 -0.0836977
-10.4609072 -2.5569562 20.3987775 -0.9905991 -0.0119280 0.1362761
-10.7176574 -6.9247122 12.7998692 -0.9999468 0.0052681 0.0088723
-0.5082986 9.6206996 20.7695083 -0.0526318 0.9110768 0.4088631
7.8551695 0.9471871 -20.7567039 0.1583086 0.9863338 -0.0456506
-3.6950983 -0.6196090 22.8131777 -0.0603971 0.9981312 0.0092882
1.2699829 -1.8202155 -32.2170392 0.6745770 -0.5990779 -0.4313368
4.3286086 -6.7341699 37.4892206 -0.0211058 0.2383204 0.9709572
3.3833368 11.3879047 15.2045360 0.9558596 0.2694497 -0.1171719
4.9240957 -3.4786389 23.7132175 -0.2089538 0.2824100 0.9362601
-2.7199875 -13.1952156 -4.6143099 -0.2710340 -0.9612352 -0.0506701
-4.1382890 3.4929908 16.8877658 0.9833106 0.0849293 0.1608953
-7.4790854 -7.1562284 28.2790432 -0.0280393 0.9994548 0.0174314
-5.8269495 5.0679270 12.8561310 -0.0474706 0.9987868 -0.0130928
5.5544435 -6.1854508 25.3611356 -0.4894376 0.5477442 0.6785478
9.8939109 0.3461195 14.5335550 -0.9982719 -0.0019059 -0.0587335
-0.7629170 6.5780111 0.6029167 0.0003703 0.9614092 -0.2751221
2.0571318 -13.8938727 28.5865225 0.2550900 -0.9669167 -0.0010411
-10.6497332 -0.0150657 6.7348174 -0.9940242 -0.0941868 -0.0551793
-7.2624752 -12.3474269 29.7104477 -0.6183795 -0.7858107 0.0104065
-0.9111665 -12.4137684 -13.4884753 -0.4371005 -0.8446117 -0.3091509
-10.7014639 -7.2996129 2.2832328 -0.9979642 -0.0420435 -0.0479559
3.2049045 3.0184495 -6.9780861 0.2965553 0.8111832 -0.5040206
-0.3583964 -12.4190020 -14.1447764 -0.2956704 -0.8918572 -0.3423008
1.9799166 4.8494956 -4.6536435 0.1465798 0.8715108 -0.4679565
2.1477804 12.8950321 20.7845853 0.9484695 0.1220051 -0.2924386
6.6406915 2.1726364 16.7422116 0.4264034 0.7229269 0.5436513
10.2251991 -3.1130929 24.3907793 -0.1774753 0.4714453 0.8638529
-9.6732546 -0.6102686 -6.3384036 0.0044554 0.9995757 -0.0287865
-4.9748134 -0.8285413 -26.8754089 -0.7402203 -0.5434201 -0.3959401
6.1928905 5.0434238 12.5922754 0.0726354 0.9967101 -0.0359589
-1.5220449 -12.5213511 33.9931515 -0.0003871 0.0003106 0.9999999
-6.7504603 -12.6281962 30.2104322 -0.3336509 -0.9425510 -0.0165758
6.7335279 -12.6489127 25.9650028 0.3038519 -0.9526721 0.0094836
8.7562656 -0.6361737 -10.7390306 -0.0355203 0.9898956 0.1372769
9.6151239 -0.7046911 12.3183836 -0.0721550 0.9973840 -0.0043322
-3.4091294 4.5272764 17.0053064 -0.0218139 -0.9991763 0.0342168
-2.9743471 9.6299774 5.4852989 -0.2552702 0.9397550 -0.2273711
-8.5483183 -0.6945923 16.1247093 -0.0153525 0.9998809 0.0015509
4.7837442 5.2508705 24.5704990 -0.0046129 0.9853296 -0.1705996
0.6806987 -14.2492682 23.3118170 0.2702063 -0.9627913 -0.0046281
-10.4238897 -3.0938730 12.0529208 -0.9991402 0.0413380 -0.0031718
-1.4989804 0.7962335 27.9875074 0.0047390 0.7407950 0.6717145
4.3405898 -13.2226184 2.1206215 0.2504755 -0.9669271 -0.0481040
-1.7741828 2.7888771 -8.0443329 -0.1636498 0.8674799 -0.4697844
-4.7680425 6.7577292 13.3989099 -1.0000000 0.0000138 0.0000102
3.0741511 5.3826711 -2.8346091 0.1647232 0.9408315 -0.2961457
-7.2179220 2.6935838 5.6946308 -0.9977597 0.0657725 0.0122305
1.0719424 -4.2336358 -29.1610323 0.6701294 -0.6041965 -0.4311301
-9.1119055 -0.5907154 3.5786611 0.0414677 0.9991187 -0.0065008
-3.5352575 -6.5427312 -21.7145225 -0.7562590 -0.5332072 -0.3791601
10.6260071 -0.6156105 8.5163666 0.9994717 0.0254029 -0.0202731
-1.6068907 -13.6547950 -7.8382905 -0.4388369 -0.8985555 0.0044978
-4.3960449 -0.1429349 29.8011173 0.0006300 0.0032097 0.9999947
4.1520681 9.6729276 15.2091303 0.7178471 0.6956478 -0.0277434
5.5039937 5.0783570 12.4860831 -0.0495614 0.9987551 -0.0056505
-7.3410389 1.7569691 -0.2085835 -0.9883479 0.1520718 -0.0065207
-1.5496081 0.3423852 14.1508480 -0.0962326 0.0195642 0.9951666
-4.5784120 -13.2143485 24.4111554 -0.2506946 -0.9680656 -0.0010600
-0.2720775 -14.3435266 14.1157326 -0.1750859 -0.9845358 0.0058498
7.8317400 -0.6423851 18.8242753 0.5122520 0.8587351 -0.0131104
5.0947648 14.3694142 22.8363872 0.5136648 0.8571612 -0.0377258
6.8425941 -0.6866507 22.5735507 0.0024328 0.9999188 0.0125058
-4.6224154 -12.8295681 -3.3946167 -0.2457218 -0.9671984 -0.0644049
-6.5928889 6.6703830 6.6248840 0.9019176 0.4318643 -0.0061616
-4.6011586 -13.2091478 15.1730046 -0.2496136 -0.9683450 -0.0010148
-2.0544892 9.3600376 15.3295052 -0.0244414 0.9992938 -0.0285414
0.6603309 -14.1384531 -4.2281552 0.4742198 -0.8804019 0.0028290
4.4641411 8.2786030 6.4265099 0.6067659 0.3302210 -0.7230416
-3.6359209 5.4284321 21.3143633 -0.3313340 0.1444289 0.9323937
10.4269914 -3.4472990 1.1691759 0.9964690 0.0746901 0.0383514
1.3773325 9.3168604 15.4569678 -0.1066875 0.9559885 0.2733200
6.8708180 -12.5953669 15.7326112 0.3772673 -0.9260153 -0.0128444
-4.7826046 6.2856520 5.4121243 -0.9860725 0.0059870 0.1662081
-2.9897809 4.5876101 24.4165895 0.0506370 -0.9883104 0.1437999
-4.7760937 3.7337845 16.2704425 -0.9988786 0.0042761 -0.0471508
7.1308065 3.5610574 8.8343709 0.9996344 -0.0195492 -0.0186813
-2.4341133 -0.6899718 -23.3729185 0.0002344 1.0000000 -0.0001085
-1.8314356 11.9301072 14.3114885 0.4762479 0.3301375 0.8149829
-6.5918521 -0.6698308 21.4973040 -0.1315111 0.9897385 0.0558802
-3.6101854 -1.2705739 25.4111301 0.0709472 -0.9972769 -0.0201319
-4.7675071 6.2934881 7.3970490 -0.9999350 -0.0052939 0.0100941
2.6685565 -0.6852123 -25.1744020 -0.0237821 0.9997120 -0.0032009
0.5463159 5.3903696 26.1314352 -0.0380152 -0.0099129 0.9992280
5.1236229 0.7000534 29.7404990 -0.0003044 0.4488426 0.8936108
-2.9209860 -13.6375529 6.0568173 -0.2587663 -0.9659381 0.0019128
7.1598249 5.4964729 9.8319659 0.9993766 -0.0302314 -0.0182346
-1.6373190 11.2571096 12.3749688 -0.1302345 0.9602432 -0.2469250
-6.7625493 -12.6230390 9.7396773 -0.3316763 -0.9433471 -0.0093312
-10.6132298 -8.7089729 17.7837203 -0.8752421 -0.4836802 -0.0021755
3.5875280 4.5631880 19.4058781 0.0242771 -0.9923589 -0.1209728
0.3435841 -14.3308814 12.6460128 0.1975214 -0.9802894 0.0042451
-8.4410226 -11.1258559 15.2926823 -0.7413103 -0.6711582 -0.0023727
10.4272922 -3.0829556 20.6031193 0.9975620 0.0649722 0.0254686
8.3253062 -0.7284481 -8.4164593 0.0169452 0.9907224 0.1348407
-1.1553943 6.7616578 1.2809986 -0.0551802 0.9600352 -0.2743859
-2.4903253 -0.6884398 -24.9510556 -0.0042460 0.9999675 -0.0068486
9.6488373 -2.5092958 -10.6207658 0.9308647 -0.2859824 -0.2273872
-7.2775865 1.9989900 1.2928292 -0.9891666 0.1467945 0.0009093
4.7354232 -7.1159516 30.7492472 0.0348267 0.9992472 -0.0170894
-9.4996363 -7.7852408 -4.1808072 -0.9340984 -0.2848118 -0.2152728
-9.0437346 0.7104902 -17.6848432 -0.9222074 0.3176540 -0.2205208
-7.4349283 1.0264307 2.4678648 -0.9834353 0.1812270 -0.0034278
-4.1682747 -1.9398087 -26.8726748 -0.7799381 -0.5092820 -0.3637697
-9.9619819 -1.4287049 -10.8880850 -0.9456662 -0.2639046 -0.1899203
-7.8198970 -0.6130245 11.6870539 -0.5708687 0.8210171 -0.0063162
-0.0053523 -0.6823067 -26.6348496 0.0111965 0.9998770 -0.0109815
-3.6173708 -0.2441028 -30.5989584 -0.7475668 -0.5681196 -0.3440697
-5.8177426 5.0876320 13.5083049 -0.0520935 0.9986370 -0.0032149
10.5374296 -2.2688018 21.0252897 0.9544869 -0.2397765 -0.1773756
-10.7441464 -2.1854850 -3.0979590 -0.9990380 0.0338391 0.0278916
9.6703266 -0.6982302 17.3875469 -0.1212193 0.9926210 -0.0030806
9.9991621 -5.1973974 26.1156489 -0.8440992 0.3926454 0.3651385
2.6989053 4.6233989 22.9380761 -0.0056185 -0.9934492 -0.1141363
-6.6015945 5.6871786 25.8139463 -0.6522868 -0.0232921 0.7576143
10.6407051 -5.8004102 23.2163299 0.9999678 -0.0076037 0.0025627
-6.1142012 -0.5711386 -12.1880984 -0.4882021 0.8565585 -0.1672313
6.9941877 -9.1217816 36.9607515 -0.2680012 -0.6290303 0.7297234
8.2284267 -3.9075626 23.7721292 -0.0164142 0.2397208 0.9707031
-10.1120883 0.8182736 9.7729789 0.5865030 0.8096230 -0.0229082
-3.8839775 -0.3161614 -27.7134704 0.7667088 0.5462514 0.3372938
10.5152630 -3.9767020 20.5205057 0.9765546 0.1400280 0.1635030
-6.2517633 -0.1155579 -25.1108703 -0.7761126 -0.5229131 -0.3524360
7.1980945 2.4594301 6.6955628 0.9891578 0.1468193 -0.0033092
6.8950897 -7.0749126 32.8302536 0.0003031 0.9999653 0.0083257
10.6761539 -5.2073974 19.9540375 0.9988698 -0.0180926 0.0439520
6.6920429 -11.4005210 -3.8593176 0.7152135 -0.6735758 -0.1864545
1.8514614 10.8862426 11.1783517 0.1626819 0.9565855 -0.2418239
-10.4557328 -0.8468291 -8.9090718 -0.9668568 -0.2077589 -0.1484056
2.1310755 14.1387668 22.1689617 -0.0665335 0.9785628 0.1949053
-3.3761819 -0.6876762 -19.8934938 0.0042263 0.9999050 0.0131204
6.8100233 6.8834563 17.4816769 -0.1580178 0.9872599 0.0186597
-0.3476451 -0.7093780 16.7770635 0.0327210 0.9994642 0.0008313
-7.0218125 3.8509596 15.9866870 -0.7493933 -0.4757838 0.4604775
6.7584872 6.8587594 11.7726012 -0.4604089 0.8865934 0.0444498
1.8535644 -0.3429972 22.5545422 -0.9982945 0.0327096 0.0483544
6.4757667 -12.5983041 1.2546628 0.3988224 -0.9141486 -0.0726163
-9.1223637 -7.0892369 25.0939626 0.6201014 0.7845064 -0.0048983
-4.0383497 -8.7562650 35.5717716 -0.0012301 -0.9999683 -0.0078620
7.5925550 -0.7301402 -20.6105318 0.8553495 -0.4648967 -0.2285788
5.4039891 -12.9504596 2.2272059 0.2564523 -0.9652574 -0.0501035
1.2960292 -2.3315350 -31.4625676 0.6739590 -0.5987287 -0.4327855
10.5986042 -6.6791785 21.5346919 0.9994743 -0.0301081 -0.0120299
10.6368844 -0.2222714 10.9253495 0.9974539 -0.0173464 -0.0691728
5.3148977 5.0668050 10.3083535 0.0218072 0.9996151 -0.0171471
8.1004679 -11.3550943 32.3858098 0.7227335 -0.6911032 0.0057191
-5.9629073 -12.6304395 -0.8906750 -0.3407287 -0.9359303 -0.0890980
-3.5446205 -5.6858132 -22.9071871 -0.7565874 -0.5290087 -0.3843505
-9.8740958 -0.0067357 26.6960205 0.9931099 -0.1007602 -0.0598337
-4.7258325 9.1025455 7.7612790 -0.9339251 0.3554861 0.0375972
10.7095951 -1.4787280 21.4509607 0.9953812 0.0844734 0.0456132
-4.2290397 -13.3036462 28.0134595 -0.2436238 -0.9698696 0.0005931
-10.6402312 -6.5022510 0.2005862 -0.9839500 -0.1467311 -0.1015498
1.9811772 -13.7654961 1.1446548 0.2275845 -0.9712448 -0.0699202
-0.3858914 -0.6644480 20.9002438 0.0576874 0.9878009 0.1446431
0.0164517 -0.6169051 14.2362949 -0.0283433 0.6878134 0.7253340
-10.6785253 -1.5085020 18.3730375 -0.9962342 0.0402662 -0.0767860
10.6461006 -0.3349562 15.1576570 0.9998002 -0.0186478 0.0071918
3.5205623 -13.3657193 0.9085032 0.2466756 -0.9676179 -0.0535429
-2.4560788 5.1635324 25.1764039 0.0054966 0.9998476 0.0165721
3.7501227 10.0358959 13.8292631 0.8713612 0.4861383 -0.0663265
4.7512779 6.9873821 17.5036238 0.9998104 0.0006103 -0.0194614
10.0082199 -9.3997178 30.7627629 0.7235443 -0.6901699 0.0122092
10.6065050 -4.5877629 18.2730766 0.9766034 0.2128061 -0.0309728
-0.3249370 -0.6795945 19.4357895 -0.0194189 0.9975574 -0.0670985
5.9852235 -12.8502896 24.6975885 0.2586333 -0.9659755 -0.0004811
-5.3965120 2.7598637 -5.1387140 -0.6538387 0.6740752 -0.3436824
6.2890338 -4.9406978 24.5511741 0.4159022 0.4569903 0.7862476
2.5645674 -13.7559486 15.8066464 0.2594322 -0.9657612 -0.0005352
-8.2194236 -11.3673345 13.7386193 -0.7375428 -0.6752761 0.0057378
-5.7102296 -4.1275727 24.2748692 0.3275094 0.4455855 0.8331814
1.4357430 -9.3171918 -20.9187650 0.5094750 -0.7933924 -0.3331123
5.9462650 4.5457521 23.4310089 0.0416783 -0.9989756 -0.0176246
-10.7268266 -0.4120685 -6.0278896 -0.9999725 -0.0039369 0.0062928
1.1307190 -0.7826921 -19.0191159 0.0351022 0.9983552 -0.0453290
-2.7828975 6.1262561 -0.2276885 -0.1295187 0.9678734 -0.2155135
8.2077327 -7.0799540 29.3690771 0.0052521 0.9994072 0.0340235
-9.7977216 -3.6391304 -8.2890119 -0.8942074 -0.3336822 -0.2984115
0.5909206 9.2712611 15.5746983 0.0196809 0.9997140 -0.0135894
-10.6319357 -0.2292585 -1.5839148 -0.9972238 -0.0736947 -0.0106660
-9.7364831 -2.1322496 -10.8676310 -0.9232154 -0.3157503 -0.2190320
-10.4234557 -3.7177188 -4.6352079 -0.9827155 -0.1744031 -0.0620783
-4.0037393 -4.1114470 -24.0670419 -0.8205113 -0.4894651 -0.2952711
10.6542246 -7.8217985 4.0608865 0.9991230 0.0410819 0.0080952
-2.6475712 -0.0788320 -30.5364752 0.7555033 0.5391942 0.3721348
4.6175540 3.2882435 -5.3298248 0.5512240 0.7151756 -0.4297393
-10.6289930 -5.5332914 18.0639587 -0.9999336 0.0112872 -0.0023128
-1.0470594 -1.5152979 -32.9904512 -0.6678152 -0.6033210 -0.4359205
1.0352803 -0.6495015 16.3764948 -0.0567714 0.9959635 0.0695248
5.4314654 -12.9892387 5.8281125 0.2303128 -0.9731150 0.0017931
-1.1046747 -0.1091156 29.0009835 0.0120932 -0.0322280 -0.9994074
-9.9314248 0.5477577 -1.4426911 0.9602041 0.2788881 0.0151500
10.6297702 0.4891362 26.9191640 0.9770692 -0.0470037 0.2076690
10.3752825 -9.0045549 29.3396265 0.7701322 -0.6378831 0.0012688
3.7197617 -1.6079866 23.5080421 0.0162467 0.2699039 0.9627502
9.4655491 -7.1537738 32.2289821 0.0398847 0.9991922 -0.0049206
-2.7527759 4.5408236 14.8559355 0.0260062 -0.9955396 -0.0906893
-5.4124697 5.0876240 11.2030171 0.0574789 0.9983180 0.0075723
0.4190219 4.7428978 21.5355604 0.0301194 -0.9900185 -0.1376814
10.6483148 -1.7926532 10.5725397 0.9985001 -0.0400861 0.0372912
0.2959741 -7.1255459 24.0949003 -0.0110758 0.9983052 -0.0571316
6.8749603 -12.6110909 31.5830822 0.3754035 -0.9268495 -0.0047119
8.4350024 -11.0101150 33.0386957 0.6995603 -0.7140953 -0.0261411
1.3672164 -14.0703998 17.6879570 0.2453979 -0.9694146 -0.0038950
-3.3029155 4.5443637 18.1677007 -0.0456160 -0.9989535 -0.0033246
-8.4929382 -0.6866949 -10.8001163 -0.0002025 0.9999998 0.0005740
-10.4410326 -3.5774303 7.8125828 -0.9978616 0.0202931 -0.0621320
9.8678180 -9.5401129 15.1560538 0.7252902 -0.6883732 0.0098207
-10.6529110 -1.6240360 2.5841131 -0.9958745 -0.0486940 -0.0765700
-8.4232450 0.1255952 28.6157869 0.4707226 -0.1260892 -0.8732249
0.0809188 -14.3781475 -8.7790533 0.1149738 -0.9911493 -0.0663639
-4.7298785 1.5834361 19.1318673 -0.8448171 0.4378759 0.3074878
-9.4811019 -7.0757195 34.6303964 0.1324606 0.9904765 -0.0375572
-2.1031350 10.6499393 10.2892727 -0.1667196 0.9665778 -0.1947613
-4.1444102 0.2372570 16.5160607 0.9999821 -0.0042529 -0.0042080
7.5417885 0.2092710 -19.3409525 -0.8875210 0.3837729 0.2549996
-9.7701704 -8.6625878 -1.4219534 -0.8411177 -0.5141511 -0.1678382
1.1546937 -0.6377764 -31.9299588 -0.1613882 0.9738251 0.1600578
2.8428965 -7.0736399 32.0679501 0.0003048 0.9999999 -0.0003104
8.2453435 -11.3243699 11.2280716 0.7419319 -0.6704467 0.0061818
-8.4554411 -0.6965630 19.5293752 -0.0299658 0.9993132 0.0217967
10.6784546 -7.4471323 34.1162070 0.9855050 0.0443015 0.1637599
-9.1411536 -0.6897422 11.5879889 0.0343624 0.9994036 -0.0034160
-9.4177592 -7.7866466 36.5673896 -0.5948256 -0.0190950 0.8036279
-2.5860622 2.9104562 13.7996107 -0.1575268 0.0811070 0.9841783
7.5566487 -12.0759422 9.6912386 0.7347305 -0.6783401 -0.0050714
7.1387859 -12.4558242 13.4550991 0.5590979 -0.8289624 -0.0151936
5.1757020 -8.5927781 -15.5141823 0.7279129 -0.6004873 -0.3309952
-7.0770068 3.0778564 15.0279493 -0.9940648 -0.0935724 0.0554927
3.1708439 -13.5928665 32.1786062 0.2593328 -0.9657706 -0.0057927
-2.3935512 -4.8127380 -26.1865833 -0.7066779 -0.5735714 -0.4142731
2.9241686 -7.0678813 28.9514539 0.0122280 0.9998990 -0.0072422
-10.6611462 -8.2556883 30.9723674 -0.9995314 -0.0296428 -0.0076391
-0.8654385 -7.1443928 33.4549522 0.0057361 0.9984265 -0.0557822
-3.1355272 -13.5083129 1.6905744 -0.2474474 -0.9671116 -0.0588644
-9.2497609 0.7604819 -16.8208253 -0.8850309 0.4249785 -0.1900358
6.5255396 -12.7058537 28.8172331 0.2573259 -0.9662962 -0.0074160
-3.5384902 -13.4768670 20.3792261 -0.2452105 -0.9694698 0.0003147
3.9206496 -7.0721199 29.4983317 0.0087686 0.9998503 0.0149129
4.7770811 6.7483848 11.8624139 0.9995039 0.0262847 -0.0173513
-8.4081082 0.7146884 -19.8877644 -0.9149069 0.3024327 -0.2673572
4.6028577 -7.5027392 37.4922209 -0.0033601 -0.0045055 0.9999842
10.0654592 0.8599679 8.6721815 -0.6041585 0.7968379 0.0064725
7.1786864 4.5320884 23.1575544 0.9982372 0.0084817 0.0587409
7.4355628 -12.2009441 8.2977174 0.7009111 -0.7132470 0.0015185
-0.1861109 -14.3478442 10.4779085 -0.1137482 -0.9934285 0.0126951
6.4069804 -8.9823817 -11.8298722 0.7280221 -0.6266051 -0.2781185
-1.5315280 4.5657058 19.5436584 0.0241616 -0.9967213 0.0772191
-6.3743022 4.6926873 15.9463531 0.9991873 -0.0035582 -0.0401517
9.0410780 -8.5491084 -4.8093658 0.8383552 -0.4944153 -0.2295953
8.5442366 -0.5518376 -17.8586919 0.8798299 -0.3796311 -0.2859712
10.3424005 -5.1162690 -3.6203995 0.9630418 -0.1904063 -0.1905148
-2.2280548 0.9431874 -13.6799617 -0.0999009 0.9614592 -0.2561563
-8.3585176 -3.5468365 23.6578675 0.0298613 0.2716257 0.9619396
1.9640784 -7.5665868 37.4933271 0.0012597 0.0122789 0.9999238
1.7704916 -0.6908677 21.2602416 -0.8167258 0.5677407 0.1030992
-2.6807042 -0.5337579 28.3532613 -0.1984966 0.9739227 -0.1098803
5.1235994 0.0752180 -25.8259232 -0.7742500 0.5129430 0.3707106
2.3645636 -13.2917061 -6.1621499 0.4018722 -0.9156094 -0.0125758
8.1194551 -11.4574934 18.1322858 0.7397939 -0.6728137 0.0051765
-1.8939201 -6.2888999 22.6170380 0.7033831 0.2513532 0.6648863
7.7298514 -0.5326292 -0.6101365 0.6257996 0.7799726 0.0041910
-8.4870520 -2.7444920 23.5024739 0.0879973 0.0116110 0.9960530
-2.6353203 10.1384109 14.5291050 0.8316219 -0.0433232 0.5536499
-5.6481999 -12.9151342 2.9556875 -0.2556850 -0.9662496 -0.0314149
7.4060390 -5.6375094 -14.1709740 0.8465807 -0.4142583 -0.3342025
-1.2271533 -3.4920539 23.5585844 -0.0214338 -0.8320925 -0.5542226
1.8850000 -5.3101050 -26.3577226 0.6967042 -0.5824541 -0.4187488
-4.6496317 4.0238557 16.7731969 -0.7259436 0.4957511 0.4766936
-0.8474555 -11.9746496 33.9932211 -0.0002333 0.0006722 0.9999997
-5.8781709 0.9297938 -26.4025109 -0.4056943 0.9020203 -0.1475518
3.7270239 -13.4390933 24.4520874 0.2701824 -0.9627839 0.0069768
-6.6375925 6.7649732 18.1119442 0.7496786 0.6613559 -0.0242974
-10.6831275 -0.8138597 11.5640656 -0.9974886 -0.0683810 0.0184529
-2.7902499 -0.5895649 20.9714922 -0.3452881 0.9380086 0.0302639
5.0082173 -7.9229867 -16.9256442 0.7655749 -0.5168238 -0.3831296
2.2461137 -8.7550020 35.3113467 0.0001133 -0.9999963 -0.0027319
5.7473457 -6.3174340 -17.4922949 0.8106304 -0.4745655 -0.3430248
10.6415450 -0.9682414 11.4986654 0.9999744 -0.0019125 0.0069007
5.8775909 -0.6032022 24.6963830 -0.0033011 0.9988027 -0.0488095
-10.2972849 -1.6071473 -8.8212153 -0.9577050 -0.2356988 -0.1650673
-7.8594592 -7.0610108 34.4006630 0.0029427 0.9987629 -0.0496388
0.4974038 -0.3212423 -17.3858543 0.1197991 0.8572414 -0.5007847
7.1529512 3.0220043 1.8702438 0.9969039 0.0760589 -0.0199416
-1.0128125 -0.7042523 -19.5907202 -0.0047172 0.9981064 0.0613305
9.0248543 -0.6056244 7.4381358 -0.0598623 0.9981911 0.0055633
7.1063941 4.9103593 13.9553441 0.9977588 -0.0409149 0.0529468
6.9733304 -0.4424989 29.7925086 0.0499813 -0.0213046 0.9985229
-9.7356777 -0.5781645 -3.3122873 0.1130339 0.9934237 -0.0182390
-0.2856608 7.1792315 2.7689458 0.0732331 0.9789846 -0.1903314
-6.2477342 -12.6390575 0.5741962 -0.3410575 -0.9377462 -0.0656640
-6.6448755 6.7480383 7.5875236 0.7458509 0.6656191 0.0256446
